ply
		format ascii 1.0
		element vertex 64810
		property float x
		property float y
		property float z
		property uchar blue
		property uchar green
		property uchar red
		end_header
737.036896 1788.318253 1511.541939 85 86 90
737.036896 1788.318253 1511.541939 85 86 90
731.463051 1793.795013 1504.002571 72 74 74
725.858116 1537.655449 1876.137161 34 36 36
725.858116 1537.655449 1876.137161 34 36 36
437.233114 714.756632 2981.515503 24 19 20
348.528790 1143.059158 2331.148338 39 34 25
798.233604 1519.845390 1926.714325 118 118 118
729.888105 1533.499718 1884.975624 135 132 104
352.015138 1138.735104 2345.031929 34 30 29
321.105576 1139.788437 2336.319733 22 20 19
727.028894 1798.348236 1502.171421 70 73 71
722.362328 1537.631512 1882.851219 51 45 32
790.083265 1509.459782 1947.017670 130 134 129
327.675414 1178.312302 2289.618301 100 93 84
339.077973 1214.444447 2240.560913 32 27 24
580.015850 1557.040787 1814.316177 84 73 21
337.504315 1143.282318 2345.027542 103 103 87
337.504315 1143.282318 2345.027542 103 103 87
330.950046 1227.120972 2220.379829 23 21 21
334.706879 1218.868160 2234.473991 22 16 17
449.096441 752.471256 2959.728050 149 134 72
331.252074 1185.002041 2285.974121 50 41 31
349.365282 1208.745480 2257.162666 124 116 86
349.365282 1208.745480 2257.162666 124 116 86
310.127306 1134.186268 2356.481743 19 16 11
451.017570 833.730412 2843.899727 36 24 14
434.346294 755.007267 2954.909897 158 134 82
337.027955 1193.226624 2278.761864 42 36 31
439.853573 779.207706 2921.440125 46 28 17
606.239223 1384.064484 2083.889961 66 71 70
339.752269 1219.854450 2244.327545 125 115 97
329.535913 1186.944294 2289.906883 138 130 107
1609.010506 1785.554695 1810.360146 34 26 26
587.668324 1558.611488 1822.390175 99 88 36
424.507141 724.638414 3003.570938 55 44 30
330.703521 1050.506496 2493.198204 73 71 61
443.461752 810.831451 2883.321571 46 29 16
334.598303 1204.287148 2269.686699 34 25 22
430.539227 750.260401 2972.272682 51 38 12
439.874029 786.917448 2923.341560 174 158 121
614.143133 1540.694523 1861.242104 145 140 85
405.186510 725.314856 3007.809258 183 168 129
542.283392 1100.966930 2493.115807 115 118 103
439.664984 812.036514 2890.331268 143 120 82
433.808374 789.589930 2926.138306 73 52 24
579.185820 1543.189716 1851.186752 54 51 20
304.149008 1139.893150 2366.217232 30 23 26
534.400892 1103.657150 2491.656876 24 19 18
311.718583 521.079540 3289.462280 83 73 63
577.806139 1556.021023 1832.878494 177 172 123
603.012609 1536.437035 1870.068359 132 134 92
456.616926 974.571228 2662.584305 54 38 31
586.176252 1542.171001 1857.804680 62 66 31
746.022463 1511.647511 1953.729057 133 137 126
451.634359 904.225540 2770.494843 63 47 34
595.197058 1537.402725 1872.661209 116 120 84
451.631117 952.002335 2704.878998 151 128 78
531.635571 1127.607822 2466.769791 59 50 40
271.518612 1137.471962 2373.418236 26 23 8
452.841043 948.362064 2713.966942 156 130 94
273.291206 1179.626465 2312.246513 80 74 67
442.075109 877.288055 2819.194603 58 43 27
585.473156 1543.382168 1864.832687 140 141 97
588.328457 1542.591572 1869.659424 144 138 91
532.954311 1752.341461 1539.559746 139 140 124
532.954311 1752.341461 1539.559746 139 140 124
434.259939 874.386406 2831.360817 159 141 100
455.771828 1015.388680 2628.133202 155 134 73
716.364670 1822.015762 1491.399860 181 180 182
252.425361 1139.983940 2381.262398 140 146 129
252.425361 1139.983940 2381.262398 140 146 129
606.881332 1543.533611 1881.253052 52 55 40
228.875947 1139.481258 2378.299713 45 40 41
606.865501 1542.140198 1893.464088 81 84 59
538.255119 1172.081470 2443.028641 107 99 82
441.804266 1004.738998 2676.005936 71 51 20
700.729656 1519.917202 1967.618942 124 127 125
441.741657 1083.303070 2562.859344 52 48 37
542.288637 1403.822517 2101.166344 154 164 151
228.058863 737.365150 3039.883995 64 53 39
446.064663 1101.414013 2543.059731 41 46 44
446.064663 1101.414013 2543.059731 41 46 44
653.203821 1528.484917 1949.018288 58 58 44
608.515072 1525.663662 1943.553925 110 107 63
254.429698 818.942547 2939.189339 58 46 28
254.429698 818.942547 2939.189339 58 46 28
708.025312 1517.119598 1989.331055 88 98 98
10.815278 964.326477 2643.923569 50 46 41
93.356270 1087.969875 2484.133911 53 48 47
243.911672 825.486565 2939.018822 115 98 49
559.721661 1808.729362 1497.953796 168 172 183
524.090672 1192.986107 2453.832245 63 51 39
512.856770 1552.840805 1891.903114 142 128 62
653.755951 1524.798870 1983.370590 108 113 116
264.836693 963.283157 2758.625412 43 32 24
652.184629 1525.931740 1987.531281 18 24 31
664.716530 1528.512478 1987.395859 118 124 129
279.452467 1259.043694 2310.880280 44 38 31
279.277039 1239.963055 2345.721626 127 121 110
281.493425 1308.845139 2237.093353 62 58 39
280.352831 1259.746075 2315.176201 149 147 129
460.177135 1755.102348 1576.858997 157 150 141
279.713130 1255.470848 2322.148514 129 126 112
282.740283 1234.148884 2358.354378 113 103 96
274.214458 1274.277401 2294.133377 128 128 112
278.092051 1296.888542 2260.772896 139 142 117
450.287676 1757.290649 1574.734020 194 189 188
281.915975 1321.412182 2224.710655 141 139 109
283.571887 1325.408554 2219.224548 147 145 114
280.826521 1316.528225 2232.755852 134 132 108
260.536313 1325.715542 2213.137817 141 135 106
451.997423 1759.373474 1573.831654 115 106 102
451.997423 1759.373474 1573.831654 115 106 102
522.156048 1222.718811 2454.058075 156 140 93
257.060838 1210.480404 2402.843666 108 102 89
246.822572 1213.726044 2396.360397 141 138 117
259.293723 1218.322563 2396.090889 49 42 33
251.309299 1232.920933 2371.176147 106 99 84
248.847914 1227.158356 2381.262589 71 61 44
248.847914 1227.158356 2381.262589 71 61 44
252.077484 1296.779919 2270.608139 143 137 100
547.596645 1552.252579 1941.619873 194 173 105
234.875274 1241.148567 2369.592667 51 45 26
655.330086 1529.066849 2020.112991 40 43 41
230.875587 1265.074635 2334.115028 37 27 17
228.774858 1276.226616 2317.447662 48 41 22
294.466209 1545.381927 1897.279358 82 88 41
222.505093 1253.148556 2354.642296 87 77 60
222.505093 1253.148556 2354.642296 87 77 60
219.690013 1240.785980 2374.015427 158 145 113
536.596727 1557.831860 1945.850563 217 203 154
226.664281 1276.242733 2323.048782 186 172 124
213.289976 1237.900257 2382.210732 41 39 21
214.558291 1255.984116 2355.579758 122 119 98
202.866507 1247.813606 2371.470451 73 65 48
205.723810 1291.317368 2306.915474 77 68 31
183.152783 1223.793030 2418.910980 182 176 141
514.846849 1272.866917 2427.717018 255 255 255
181.048417 1265.537548 2353.625298 167 155 113
166.073596 1220.123577 2430.882072 129 129 99
383.862710 1569.446659 1909.976196 76 71 8
173.461509 1251.006031 2383.783150 64 57 32
180.994439 1339.427280 2254.278374 152 142 94
607.314634 1535.921574 2038.643837 130 139 136
436.821890 1810.087013 1535.881996 181 183 171
427.677917 1812.260628 1538.823223 179 181 175
503.577185 1286.665154 2448.811340 191 167 113
503.577185 1286.665154 2448.811340 191 167 113
365.430331 1569.475746 1936.384201 128 128 64
390.265369 1793.103981 1565.139675 176 175 154
505.466700 1285.366058 2454.170799 104 93 19
431.583786 1815.859032 1537.567329 183 182 162
517.441511 1549.488068 2012.567139 107 127 132
324.136448 1590.408802 1893.758583 178 162 73
331.037307 1619.826698 1849.007607 182 177 92
382.124615 1795.411682 1567.854214 177 177 147
504.803085 1296.787930 2453.588486 143 131 59
529.639196 1551.025677 2027.221489 20 24 29
375.477457 1797.420692 1570.032406 163 166 140
335.401917 1695.617485 1735.348511 191 185 166
337.641120 1698.461914 1731.789398 185 182 161
363.501954 1472.359180 2126.450920 157 168 160
325.934291 1664.266014 1789.753532 133 133 87
421.597195 1551.787567 2008.544350 96 96 60
337.292361 1713.520241 1709.426308 176 174 163
418.259954 1572.834301 1973.892021 129 132 77
295.262980 1447.954273 2165.928459 130 157 153
293.617606 1584.246063 1934.937668 155 140 68
320.652938 1576.808739 1957.240295 132 123 66
289.321661 1584.047985 1938.809204 79 70 2
337.262702 1759.163666 1648.582458 99 96 91
303.974199 1540.100861 2022.050858 147 129 52
453.282356 1558.014202 2030.179977 22 29 26
1287.939835 1850.563240 1736.369705 73 76 37
264.073324 1448.276711 2181.016731 87 103 116
292.289853 1634.178925 1862.996674 108 103 18
281.410432 1584.214783 1950.479507 92 80 22
468.327093 1553.175831 2050.447464 95 103 102
291.115832 1636.276817 1864.622307 175 174 84
373.301721 1824.779320 1557.129383 172 173 164
301.515651 1694.521141 1770.928955 119 118 67
377.196860 1555.777168 2034.040642 46 49 33
214.612317 1456.766987 2169.144058 73 86 84
302.483845 1700.881958 1761.478233 117 115 85
309.426856 1728.729820 1715.503502 182 181 167
305.660892 1713.874245 1742.330170 120 122 93
283.314824 1619.958115 1904.820442 196 182 130
305.630589 1722.260666 1729.105949 108 108 96
373.015976 1580.945110 1996.274185 189 180 116
361.713099 1583.057499 1991.740608 180 173 124
299.876475 1579.396820 1985.601425 125 117 57
289.165616 1662.867165 1837.294388 189 182 163
328.379059 1580.927181 1994.290352 74 72 41
419.725370 1566.090965 2044.767952 115 121 120
430.246115 1558.367825 2062.827873 74 77 81
428.801680 1556.816006 2065.984726 26 28 29
284.734511 1660.250473 1847.888565 109 108 40
308.910203 1766.880608 1664.446640 172 170 169
309.322309 1765.291214 1667.975998 174 172 171
277.431941 1662.119102 1848.858643 181 174 157
262.351108 1607.728004 1943.985748 160 158 127
286.768341 1681.341743 1818.033600 180 180 174
259.113002 1594.845867 1967.161560 108 101 44
415.678024 1559.169674 2067.656898 90 95 98
307.635713 1772.176361 1661.409569 126 122 121
328.006172 1570.910740 2031.447792 114 112 71
257.230163 1597.289944 1971.191406 139 132 123
425.836372 1559.012508 2081.290817 104 109 110
297.600985 1589.192867 2002.320862 69 57 23
258.320189 1612.739754 1951.987457 61 66 67
260.979128 1638.277435 1906.007767 142 144 152
263.937402 1636.545372 1910.107231 150 151 155
253.519249 1600.755882 1976.198006 71 74 72
253.519249 1600.755882 1976.198006 71 74 72
212.223387 1645.324516 1883.448410 129 133 138
283.734846 1722.899055 1763.641357 123 125 126
300.158834 1589.476013 2010.904312 158 151 101
266.364813 1665.097046 1865.908813 129 133 138
270.094776 1680.809212 1841.668320 135 140 149
252.365518 1624.284363 1947.800446 22 21 25
241.153765 1629.585075 1939.458275 107 106 116
248.976135 1623.121452 1953.896713 112 118 123
251.908350 1628.841019 1945.999527 119 119 125
306.620693 1819.422150 1608.065224 70 75 73
306.620693 1819.422150 1608.065224 70 75 73
276.735210 1731.908798 1763.538361 153 158 159
290.057611 1594.177532 2022.688103 177 160 79
218.310857 1631.569672 1938.269234 152 153 157
296.510077 1791.255760 1660.651016 93 96 94
237.252474 1629.418564 1947.590065 108 113 122
285.245681 1763.605881 1709.615898 132 130 130
299.565864 1806.083488 1634.766960 97 100 104
308.015823 1827.098083 1597.647285 164 165 163
276.290536 1737.522125 1756.881905 160 162 163
306.729388 1822.074318 1608.044052 161 162 160
302.077246 1808.322716 1633.340454 90 94 99
262.817693 1622.868156 1969.759941 154 157 165
302.634239 1816.758728 1619.056892 158 157 159
259.694719 1618.470573 1980.952263 62 66 77
296.315289 1802.481270 1646.712303 149 150 154
209.357429 1635.839844 1939.150238 255 251 252
159.958899 1424.880314 2323.471260 255 255 255
212.516761 1630.773354 1952.478981 134 141 128
296.047139 1800.293350 1654.852295 154 156 156
303.337455 1819.354630 1620.730782 85 89 90
203.336668 1632.939720 1948.902893 255 255 254
265.433216 1722.169495 1795.928955 61 64 72
265.069389 1620.431328 1987.592888 59 65 72
241.825724 1609.436035 2004.444885 149 147 147
276.965451 1746.266365 1755.834198 51 54 58
290.154290 1789.553833 1678.209305 75 78 76
260.256386 1623.504066 1982.970810 13 16 24
274.165678 1743.764114 1760.717201 59 62 66
212.774491 1623.990059 1972.149849 65 66 70
295.752358 1800.638580 1659.805298 45 48 62
312.021232 1841.481781 1589.005852 150 153 158
249.434114 1618.840599 1993.666840 70 72 82
260.019541 1612.546539 2008.231163 96 93 95
304.755092 1830.528259 1608.397865 106 111 109
280.843449 1774.335861 1710.238838 92 95 99
280.843449 1774.335861 1710.238838 92 95 99
291.772795 1790.447807 1682.558441 168 169 167
289.126682 1800.640869 1663.045120 152 158 171
204.702616 1641.128540 1947.546959 255 255 255
233.611274 1609.720802 2013.386345 66 66 72
248.127532 1625.410461 1990.108109 31 31 37
252.053118 1633.237076 1976.284027 147 151 156
300.399184 1828.385544 1618.299866 107 113 118
289.826679 1795.758438 1677.890968 156 161 164
259.399867 1610.652924 2023.658752 73 72 46
300.463915 1834.193993 1610.603142 153 156 160
290.538573 1803.186226 1667.454720 157 157 157
290.538573 1803.186226 1667.454720 157 157 157
249.942493 1634.328270 1979.198837 137 141 146
302.110624 1823.837852 1631.328583 153 156 160
243.215418 1622.894859 2005.829239 138 141 149
294.586515 1847.962761 1590.220356 154 159 168
283.990836 1794.097137 1692.244530 67 71 82
283.990836 1794.097137 1692.244530 67 71 82
291.764545 1807.147598 1676.312828 156 159 173
294.202232 1828.038597 1641.758919 162 171 175
280.991721 1804.126358 1688.324928 158 160 161
300.525808 1846.514130 1621.437645 155 154 156
141.812515 1559.531593 2150.947571 50 53 57
190.819740 1622.998238 2039.201736 255 255 255
288.001585 1825.831985 1665.498924 150 159 163
279.706407 1821.443748 1676.537514 175 173 172
196.640456 1622.430801 2054.475975 255 255 252
279.649949 1814.829636 1693.235397 166 166 166
286.741996 1830.935287 1663.119698 150 157 172
277.355909 1819.980812 1683.594704 100 105 104
298.282909 1851.534271 1626.866341 154 157 155
218.505669 1591.249561 2132.943535 52 53 57
278.857136 1824.883080 1681.806564 81 86 84
275.594163 1821.053886 1690.064621 165 162 158
279.393077 1826.815796 1680.569077 71 74 59
284.828806 1837.687683 1661.735916 132 136 137
207.251310 1592.118168 2134.908485 110 109 111
179.309487 1601.538086 2113.963318 60 64 65
279.023910 1832.168770 1674.090958 165 167 168
281.323576 1834.644890 1671.716690 72 75 66
281.273723 1837.258911 1666.631699 141 146 145
281.273723 1837.258911 1666.631699 141 146 145
293.421245 1856.602669 1632.027626 52 60 50
278.657699 1835.190392 1675.523567 72 76 65
275.074816 1835.891533 1675.878525 53 57 38
290.131974 1858.610916 1634.350777 142 150 127
287.095571 1853.342247 1646.616364 160 163 148
278.110099 1839.043808 1674.306297 38 42 31
273.162198 1836.767578 1678.046608 168 171 139
286.798692 1858.082962 1637.928009 147 152 120
280.799222 1847.319603 1665.870285 49 52 37
278.551197 1849.685669 1662.126923 48 47 26
276.993108 1851.737976 1664.857864 169 171 142
285.384417 1870.572281 1628.855324 125 133 96
275.082827 1851.277733 1667.671585 56 58 36
234.201431 1763.786697 1837.408066 95 98 113
154.550219 1605.632401 2151.029778 253 253 253
278.588724 1863.223457 1655.605125 150 152 133
328.616643 1643.136978 2118.953514 80 84 89
328.616643 1643.136978 2118.953514 80 84 89
278.623867 1867.426872 1652.790451 78 84 73
145.631075 1606.299400 2176.844788 248 252 255
600.435638 1853.976250 1754.779434 131 129 141
-1020.965385 1766.934967 1752.328682 123 123 141
-1204.428387 1688.267708 1898.904419 104 113 127
-1133.458710 1707.029724 1899.733353 98 99 103
-1362.392712 1628.250313 2061.651993 145 130 114
-1340.623474 1631.838989 2058.624268 145 130 114
-1340.623474 1631.838989 2058.624268 145 130 114
-950.471687 1801.569748 1759.758949 115 108 115
-930.820179 1796.763229 1776.603699 187 176 178
-970.778942 1799.666786 1783.252716 40 37 33
-1291.428661 1665.419197 2050.876045 123 110 108
550.612307 1919.995689 1686.556816 48 41 32
-1241.171551 1685.884857 2017.559052 120 109 111
-1381.820965 1609.415817 2172.992516 130 127 136
-1283.776188 1671.642685 2050.411797 56 50 45
-1283.776188 1671.642685 2050.411797 56 50 45
-603.131056 1830.917549 1797.393227 72 67 66
-999.841690 1806.114960 1799.448967 120 109 112
597.483635 1907.109070 1743.631935 120 112 112
-1051.203823 1774.597931 1883.867455 43 38 39
-1051.203823 1774.597931 1883.867455 43 38 39
-1046.195984 1775.256348 1883.255386 43 38 39
1209.051991 2024.959564 1677.625275 56 50 45
625.167894 1898.134613 1784.401894 119 115 120
614.490318 1908.941841 1757.541084 97 81 69
-1161.800575 1725.557327 2035.703850 193 183 183
641.982985 1900.527382 1796.576500 171 178 195
598.732138 1939.930153 1698.735809 35 33 23
-869.070148 1851.041222 1801.552773 120 116 128
598.963928 1958.927536 1659.470749 117 113 124
588.644934 1956.978607 1665.280724 60 53 34
588.644934 1956.978607 1665.280724 60 53 34
619.017839 1938.827515 1725.727654 74 98 118
-114.278376 864.357567 683.530378 134 136 146
541.623831 1401.198578 1093.517971 160 162 126
534.470892 1405.993938 1092.331696 51 52 26
644.759274 892.885685 1434.858036 170 168 160
547.540092 1360.947800 1133.444405 138 133 124
649.610519 908.770370 1437.339115 67 67 67
543.312740 1371.269035 1130.907631 182 180 179
544.853115 1412.755203 1113.550663 150 148 94
544.733763 1365.914631 1138.658524 120 120 120
621.902657 918.979931 1426.322365 155 153 142
657.784510 920.839977 1450.201797 200 195 194
614.917183 940.858841 1418.987274 167 171 136
539.489841 1389.786720 1139.727974 138 140 141
534.904432 1402.545357 1130.255985 91 90 92
638.089943 945.376587 1449.757576 68 65 61
535.223579 1407.539558 1131.188393 167 167 167
678.565931 951.789379 1475.501919 178 177 173
678.191805 955.926991 1481.781292 174 174 158
545.423985 1388.653564 1157.378101 177 175 175
650.020599 967.412853 1460.962868 127 130 121
518.737364 1234.989452 1230.646133 255 255 248
597.828388 1015.097046 1405.176449 97 101 65
686.485672 968.424416 1489.276314 167 165 154
534.701157 1399.944496 1150.438404 170 172 172
634.011412 981.932545 1451.631069 149 150 116
527.036047 1397.365856 1151.081467 120 121 125
527.036047 1397.365856 1151.081467 120 121 125
558.344126 1024.543858 1385.547066 255 253 255
512.199259 1433.756733 1123.955631 117 118 114
568.611336 1022.458935 1395.924664 148 130 83
574.362183 1035.281658 1395.281601 143 137 62
538.506222 1255.876827 1246.179771 187 185 185
681.788111 980.827618 1495.605087 68 67 63
537.213135 1244.364452 1255.029678 183 179 178
527.386189 1377.318382 1171.849537 103 103 109
609.848690 1035.734844 1424.733639 113 100 48
640.570641 1000.877094 1464.715290 52 50 40
536.931562 1354.050350 1195.152187 135 137 137
527.459717 1414.182281 1156.552315 109 113 114
526.508188 1274.902439 1238.530636 152 154 154
587.532949 1024.036217 1423.614025 172 158 100
693.796444 994.163132 1509.029770 174 176 156
971.774578 1496.814728 1408.883190 255 255 247
601.000643 1051.614475 1420.043278 180 163 107
533.469152 1231.406212 1273.686695 122 122 116
605.953360 1051.026058 1431.003666 193 180 134
535.237122 1233.438873 1279.489613 62 64 58
660.836697 1008.558559 1491.873074 98 102 77
608.949327 1046.824837 1437.951279 88 81 31
510.530901 1444.540596 1140.204525 132 134 135
510.530901 1444.540596 1140.204525 132 134 135
533.092022 1190.211773 1306.250000 158 156 138
610.988665 1078.191948 1421.465588 66 64 46
531.033707 1179.316330 1312.448692 255 255 247
537.649488 1369.791889 1205.002594 113 118 121
612.488985 1055.919647 1439.761448 165 155 115
612.488985 1055.919647 1439.761448 165 155 115
609.983253 1058.743477 1437.004089 86 85 64
612.410975 1076.371384 1428.004169 63 64 62
563.717127 1083.471489 1394.111633 40 35 32
583.022976 1062.370491 1421.421337 151 154 152
641.006327 1014.443779 1486.860180 137 136 92
534.313297 1161.288643 1333.916283 255 255 248
674.043083 1019.609642 1505.276108 110 114 102
535.310888 1174.710369 1327.332973 138 131 116
519.505930 1440.588856 1157.728767 157 162 165
533.282328 1160.132504 1336.883450 118 119 57
533.087683 1335.019398 1232.876682 138 136 136
502.657557 1451.720333 1143.726158 147 148 146
621.974659 1072.214794 1448.429871 178 170 117
609.216499 1075.909615 1439.069653 116 119 123
700.911760 1016.774559 1533.369732 165 164 138
604.545259 1111.504173 1416.995621 171 171 177
606.812572 1070.773411 1443.573189 34 31 33
532.374001 1129.946804 1362.441540 253 255 249
526.128244 1380.600548 1205.280399 116 122 127
537.642145 1162.148952 1348.150539 149 151 131
591.259003 1110.441685 1414.020348 96 99 107
540.398788 1173.024464 1347.393894 180 174 167
548.751879 1107.640553 1393.794441 32 33 37
575.226450 1160.872078 1379.494190 104 100 89
542.319822 1204.006290 1332.672405 75 74 64
544.151497 1122.825623 1385.100842 70 72 72
558.006716 1189.627266 1353.498077 99 97 73
622.189188 1076.363373 1463.326740 60 52 12
688.962364 1044.169426 1527.465534 41 44 29
566.142225 1127.101040 1401.317310 109 111 122
569.606495 1161.583233 1383.864689 52 52 58
625.941944 1053.867149 1487.634468 111 106 57
582.035971 1130.263138 1413.251305 135 138 143
625.788021 1098.994160 1460.500240 126 122 93
722.162342 1046.131516 1553.124523 148 150 121
565.383291 1205.194855 1357.921505 171 170 156
636.599874 1093.377972 1472.884750 73 72 28
636.014462 1098.529625 1472.516823 149 147 106
572.189426 1183.904171 1380.729580 60 63 67
571.438789 1198.751068 1374.513721 143 147 148
585.640860 1136.520386 1423.887730 135 145 162
725.504255 1055.099487 1560.810471 147 150 135
592.038536 1110.346413 1445.425415 113 120 123
567.560863 1176.634216 1389.132118 119 122 127
567.560863 1176.634216 1389.132118 119 122 127
532.681131 1489.046001 1168.233967 189 190 174
561.073256 1213.391781 1364.065742 133 133 133
582.374477 1131.309509 1432.216167 85 88 93
628.678513 1109.976768 1478.710747 131 136 139
632.255888 1105.513287 1491.021442 73 73 73
632.255888 1105.513287 1491.021442 73 73 73
626.566505 1106.616688 1486.895180 48 52 46
721.578979 1095.528412 1561.250782 47 54 41
594.251966 1121.056843 1471.266556 60 63 61
582.930660 1118.145275 1468.528175 63 64 62
598.643875 1126.616287 1475.947666 63 65 65
605.954075 956.363487 1601.140404 253 255 244
610.862255 1124.783516 1492.091274 132 128 123
638.274717 891.384983 1665.761375 80 74 27
588.140535 1128.482819 1477.533722 74 76 76
657.330227 896.651268 1675.541878 104 103 59
657.330227 896.651268 1675.541878 104 103 59
606.702900 959.486103 1604.939461 96 102 31
738.906670 1097.550297 1592.936802 44 50 33
598.260117 1138.960743 1482.279205 76 81 80
624.157286 977.778053 1608.202171 81 91 55
626.183224 931.492138 1643.153954 102 111 85
626.183224 931.492138 1643.153954 102 111 85
646.184731 902.792454 1674.871635 122 122 74
529.513502 1432.443905 1245.959759 136 135 137
568.017626 1215.621185 1418.837166 112 113 117
568.017626 1215.621185 1418.837166 112 113 117
601.671028 1141.628838 1493.248749 86 88 88
574.400091 1187.355995 1446.615982 103 105 106
613.777208 919.003391 1655.419350 252 252 252
579.265594 1158.538628 1474.525452 90 93 91
578.094673 1154.410267 1477.727890 74 77 75
630.565739 985.068417 1627.258301 59 62 12
524.768829 1455.899334 1239.162064 136 137 141
633.302307 965.902424 1646.043968 54 57 8
686.520720 918.618298 1712.716293 160 141 68
618.332195 910.175419 1680.350876 250 255 248
677.091551 931.426144 1700.613976 150 147 86
633.609200 924.814224 1680.774498 250 255 248
613.841438 920.628262 1674.905205 69 73 44
727.380323 1150.781727 1581.454086 141 147 98
585.249805 1159.083652 1491.349888 97 102 101
651.116419 970.799351 1664.760590 164 169 114
730.451059 1133.501053 1597.903728 94 101 86
730.451059 1133.501053 1597.903728 94 101 86
713.592958 1144.373798 1580.695915 52 54 34
678.310823 937.312412 1705.985260 149 139 85
629.324722 934.887981 1691.707611 47 41 30
569.809675 1547.322083 1219.837856 182 178 183
556.526327 1339.087296 1361.509037 181 183 183
667.655754 1179.121685 1544.530773 93 95 96
650.120926 990.046310 1674.633408 93 100 33
733.475733 1146.628284 1611.647224 114 125 99
641.827869 974.137020 1683.050728 156 158 99
567.516470 1295.462799 1407.434750 179 179 179
564.523983 1304.558754 1400.963020 113 114 118
685.405779 939.072323 1739.525795 192 173 106
607.747507 1194.794559 1510.169125 164 163 165
607.747507 1194.794559 1510.169125 164 163 165
731.519461 1156.071854 1612.165260 125 128 89
594.402456 792.127180 1796.036720 255 255 255
571.183586 1554.965591 1228.860378 178 176 182
773.703241 1157.450390 1640.069962 164 171 144
628.904533 1192.088795 1529.799461 144 146 147
623.818731 1207.258606 1521.305084 114 116 117
584.571505 1221.245480 1488.246536 51 56 57
655.592108 1041.197777 1664.270782 137 144 69
658.137369 907.505989 1767.133522 254 255 247
668.446779 930.858231 1759.403419 53 41 13
625.653982 1196.191788 1538.365746 152 156 157
625.653982 1196.191788 1538.365746 152 156 157
678.800058 947.878933 1756.752396 79 55 19
678.800058 947.878933 1756.752396 79 55 19
664.764595 1054.075050 1674.469948 160 159 85
654.738998 998.362637 1712.545204 67 52 19
787.539577 1181.125164 1656.565285 147 147 117
669.959831 1017.155647 1711.393738 186 187 145
646.242571 971.687794 1732.708359 112 105 88
646.242571 971.687794 1732.708359 112 105 88
998.209286 1470.470810 1566.756916 70 72 72
654.902411 986.690140 1731.933594 42 37 28
699.230862 1218.326759 1585.133362 184 181 160
657.794857 965.043354 1754.188538 127 118 98
671.900892 1047.876167 1700.715256 57 49 32
704.851913 1221.076202 1589.240360 136 132 97
662.570143 954.883671 1771.238899 69 57 29
662.761831 960.593319 1769.301033 147 133 91
587.784290 1579.207420 1252.076244 184 186 187
633.473301 1232.715321 1545.960903 107 107 107
664.199209 943.290615 1790.915298 45 39 26
646.372604 1233.665562 1557.453251 159 160 158
665.112305 943.718910 1795.877266 60 44 27
763.941097 1203.084183 1654.940224 128 130 111
650.127649 966.569424 1772.871590 116 105 53
709.851503 1236.574268 1598.557377 181 179 155
630.608463 899.588585 1820.678902 63 52 22
641.454029 969.586754 1776.257133 46 39 22
643.350649 921.701145 1815.917969 191 169 111
599.766827 1592.906570 1264.775848 181 180 189
765.172148 1207.152653 1664.454460 38 45 32
635.858822 874.913216 1851.371765 120 100 45
672.236061 1026.353264 1754.709816 172 171 110
640.476513 970.816135 1783.879852 104 91 69
642.904711 968.001175 1788.128853 45 32 24
626.821804 889.188671 1841.237259 60 44 32
626.821804 889.188671 1841.237259 60 44 32
706.250525 1245.321560 1605.866241 68 67 63
649.547482 948.511028 1810.568047 114 94 36
645.392418 935.499573 1819.682693 60 48 36
269.649863 1048.623371 1515.553570 177 176 178
629.336166 1250.670242 1563.175011 179 177 167
632.622576 889.224339 1854.995346 72 61 53
638.779306 974.747372 1790.407181 121 114 97
652.331352 948.203659 1819.421387 48 36 32
652.331352 948.203659 1819.421387 48 36 32
649.351788 1243.518543 1584.427738 81 82 72
651.513910 962.743473 1812.067604 176 157 90
676.818609 1036.382866 1769.470787 182 175 112
655.387402 947.726250 1832.611084 39 35 17
614.393377 846.472740 1893.183708 160 147 85
718.131638 1258.891296 1620.568657 179 176 162
646.629143 975.280762 1808.350945 119 110 72
561.605740 590.680218 2076.048088 155 141 93
660.685730 973.230934 1823.153877 61 41 23
770.806408 234.725833 2485.321808 107 86 58
641.551828 917.437840 1857.955551 51 41 17
650.510025 905.533218 1872.981453 199 185 127
598.130226 833.836174 1902.938271 186 172 120
791.314888 186.928272 2542.272568 113 99 51
579.725838 569.644070 2110.891724 99 87 53
635.044670 1290.581322 1555.804539 107 108 112
816.091156 1241.688633 1701.224709 48 52 41
586.840200 609.523106 2084.824181 108 88 57
653.178692 964.443684 1833.724594 116 102 74
653.178692 964.443684 1833.724594 116 102 74
644.898510 889.856148 1890.905190 198 188 124
579.176283 523.393345 2152.297974 253 255 255
773.028183 1252.493858 1668.889236 138 142 113
584.523153 552.745056 2134.004974 98 82 45
655.876637 967.316055 1844.192696 55 58 43
655.876637 967.316055 1844.192696 55 58 43
665.506220 1039.008427 1790.896606 160 155 116
567.090082 575.859880 2117.243576 122 106 69
603.128910 649.986935 2078.097343 186 168 127
801.469326 236.129999 2534.819412 83 76 33
615.529919 991.102695 1805.202675 24 20 15
675.647449 1276.907539 1604.556847 82 81 71
634.615469 1298.144913 1563.738537 104 106 107
662.457132 1276.220322 1598.790455 165 161 143
746.879053 357.876420 2407.941818 134 130 89
746.879053 357.876420 2407.941818 134 130 89
729.924631 1254.822731 1656.293297 47 40 13
771.527243 1260.040951 1676.148415 47 54 41
646.130323 939.418507 1871.427727 182 160 88
845.262432 398.713756 2442.366982 255 255 254
656.367064 884.716892 1928.679085 180 164 105
647.129393 940.825081 1876.746559 187 164 108
655.221844 878.476429 1934.744263 173 161 107
643.856859 991.363239 1837.383652 97 87 70
644.506264 939.216709 1881.505966 83 61 13
779.038525 1268.100357 1683.745193 129 129 115
631.474972 862.991047 1939.482880 82 73 35
656.691360 909.414577 1918.470573 144 130 77
830.973053 1264.159679 1720.018768 147 144 123
632.757998 567.387676 2197.605896 109 97 85
650.567961 908.872223 1920.005608 47 35 11
697.844887 1082.514572 1800.640106 148 143 118
644.086313 942.129993 1890.276718 47 35 11
643.829679 911.844254 1915.804672 54 37 4
647.451067 955.330181 1882.171249 92 69 24
707.013226 1102.897358 1793.053055 130 134 99
707.013226 1102.897358 1793.053055 130 134 99
734.401131 1272.332287 1665.482140 113 103 55
556.886864 493.214464 2224.661255 66 55 51
650.984335 944.041252 1898.156929 173 158 85
650.984335 944.041252 1898.156929 173 158 85
655.022192 868.057156 1965.637970 96 79 60
644.915533 959.667015 1882.168007 191 171 100
631.533670 685.526991 2107.377434 85 70 51
650.137901 892.371845 1944.338036 149 138 108
643.000984 543.019056 2240.753365 101 94 45
629.357862 691.748238 2107.725525 171 153 116
658.908653 838.047886 2000.783730 71 54 3
658.908653 838.047886 2000.783730 71 54 3
650.976038 1000.209713 1863.910675 159 142 91
901.843643 563.782501 2382.550812 30 23 20
641.043615 947.311020 1905.616570 181 162 87
638.922787 1330.085850 1576.625252 181 176 167
627.459049 673.570633 2135.772705 64 46 29
627.459049 673.570633 2135.772705 64 46 29
832.820988 1275.905228 1733.876991 148 150 131
631.171370 1018.937683 1843.943405 68 55 29
653.878450 892.189217 1968.434715 63 46 13
653.878450 892.189217 1968.434715 63 46 13
671.521139 602.682543 2229.875374 146 130 88
927.266407 561.340714 2412.617493 116 112 77
650.197649 911.745930 1952.795982 185 167 104
722.386312 1129.687405 1806.482506 72 74 45
632.117939 1008.564281 1861.567688 174 159 86
614.706898 662.486172 2154.454041 106 101 86
602.528572 1520.462704 1401.070786 132 127 128
602.528572 1520.462704 1401.070786 132 127 128
627.940893 944.902039 1916.547966 190 174 105
667.997217 1320.133209 1613.192940 172 169 155
913.621426 508.114100 2459.255791 166 166 136
929.295444 561.249113 2422.277451 176 163 107
670.577383 1319.401836 1617.399788 170 168 157
650.050354 1340.805435 1590.616703 78 78 72
721.348286 1126.874447 1819.282150 74 75 59
721.348286 1126.874447 1819.282150 74 75 59
654.138613 578.369093 2262.282944 84 75 41
888.857460 454.743528 2504.096794 124 108 61
621.321869 704.929495 2134.680367 127 115 97
635.535336 938.938808 1937.973595 174 165 92
639.976931 906.998253 1969.351768 163 156 83
809.554195 664.605379 2281.260490 254 253 255
630.434942 728.467178 2124.294472 52 38 19
924.981976 589.757633 2413.227844 177 166 106
623.068571 939.238644 1935.288239 171 162 95
790.566301 633.316469 2301.223755 53 51 51
818.313122 650.233698 2303.606415 33 29 24
616.306973 1022.384739 1861.593628 123 115 75
624.739170 1004.078865 1883.559608 158 141 84
670.667028 1325.490284 1625.176430 163 165 143
878.947258 412.113333 2550.708961 102 95 52
656.870079 1351.163769 1595.118332 159 163 152
790.956879 1303.065681 1713.353920 48 49 40
624.418163 959.343624 1924.008179 168 162 97
639.974213 769.466162 2104.388809 104 94 77
626.376677 952.997589 1934.697342 179 169 105
672.127438 588.650465 2287.242508 146 134 92
618.854332 961.051750 1926.379395 179 171 118
658.260918 1351.321316 1601.471710 162 164 158
658.260918 1351.321316 1601.471710 162 164 158
663.963413 564.310980 2306.068611 72 66 31
677.360058 1336.429787 1626.386642 151 154 138
826.087379 175.763273 2744.583511 255 255 255
895.624924 593.548822 2411.693192 123 110 72
650.608110 867.148590 2030.965996 156 135 73
622.951317 942.760754 1948.842430 179 170 106
657.863283 647.250175 2232.559776 48 41 16
647.273159 668.907738 2213.218117 100 96 68
660.740757 1357.602596 1603.803635 71 70 66
646.884918 1351.049614 1602.194023 157 156 146
608.986044 968.860531 1924.957085 69 55 6
638.183546 804.113960 2089.838409 47 36 16
861.877823 706.382990 2303.009987 165 169 134
993.404865 354.108047 2693.962669 255 255 255
614.815569 1022.497559 1881.943893 172 152 95
609.265184 977.142620 1920.188522 178 163 107
859.867287 605.249834 2396.327019 83 84 68
612.394619 934.639168 1961.445236 45 37 37
621.462536 921.572113 1979.099274 45 39 28
661.471081 636.525249 2259.128571 88 81 64
674.371576 655.125999 2250.274467 90 76 57
864.518738 580.289125 2425.106049 21 19 19
646.718645 669.074726 2224.205399 92 88 60
585.733557 969.893551 1918.873978 72 64 51
579.499340 924.808598 1958.302879 55 44 40
607.234669 1008.759785 1898.216629 58 43 4
607.234669 1008.759785 1898.216629 58 43 4
849.139023 700.515747 2313.804626 87 91 55
620.625210 765.563393 2127.549744 40 33 24
645.780468 681.451035 2218.578911 33 28 27
626.594162 787.344408 2112.218285 118 101 58
629.371738 814.768600 2089.183807 124 113 81
630.756950 832.421875 2075.107956 103 102 76
581.604195 951.966190 1939.649963 254 254 254
955.523777 341.887259 2702.657700 126 125 67
688.800716 608.890963 2311.767006 38 32 25
599.657822 927.966690 1973.280144 125 111 92
630.138445 817.905617 2092.414093 118 99 61
854.779148 638.942099 2380.683517 141 123 76
825.671959 1295.582867 1769.463921 158 154 135
661.852217 662.514114 2256.622696 81 72 63
597.111940 928.951931 1977.610207 45 29 12
729.245806 1162.163162 1838.581276 155 155 115
618.328142 795.056963 2112.374115 42 34 27
1063.452244 328.368592 2788.277245 126 111 72
505.920029 974.430466 1887.893295 116 122 91
853.936577 495.155859 2520.321465 79 77 76
1056.969643 351.589537 2765.038681 169 156 110
893.757057 494.009304 2546.446991 23 18 19
591.469240 1003.636742 1911.311531 255 255 242
659.335184 665.287447 2259.563065 85 81 57
659.335184 665.287447 2259.563065 85 81 57
579.466248 1008.084774 1905.931473 255 255 255
666.812372 629.482365 2303.082085 59 56 48
615.044880 883.059788 2042.551804 33 25 12
654.979134 700.436306 2235.361481 93 84 57
602.777815 875.328255 2047.257805 40 33 30
589.326429 1013.656425 1913.019371 88 70 39
965.190506 452.900505 2640.697861 67 57 23
582.881498 858.388329 2053.752518 37 31 24
590.507984 1009.704304 1918.634605 253 255 255
756.824446 1349.172974 1696.961212 78 77 43
866.618919 463.274336 2578.843117 23 18 9
590.091515 876.569366 2043.038940 121 117 93
1094.262314 370.598650 2794.369316 165 153 99
833.906555 647.367573 2393.310928 23 19 14
714.972782 1367.985249 1661.230087 170 167 152
655.803967 715.447617 2237.228203 79 74 53
777.158833 1362.232971 1702.326775 176 163 119
792.940044 737.197018 2294.440269 89 79 55
960.162067 517.726898 2595.261002 144 137 88
589.693499 1023.171616 1922.780228 77 60 39
589.693499 1023.171616 1922.780228 77 60 39
706.501389 1371.301174 1663.753128 111 112 92
960.714149 533.233309 2593.049049 73 62 32
812.348652 778.084278 2283.327293 47 38 25
812.348652 778.084278 2283.327293 47 38 25
882.525253 524.881268 2562.142372 114 105 91
820.701790 671.012831 2390.809441 42 36 17
842.669964 1347.484016 1764.795494 133 133 127
819.305801 656.977463 2404.577065 108 100 63
987.933922 481.518936 2665.876198 58 52 39
1084.760761 422.992134 2780.483437 82 69 37
646.604061 1676.785469 1349.536705 184 183 185
846.593094 1354.824448 1770.324898 130 131 122
846.593094 1354.824448 1770.324898 130 131 122
1110.387611 415.711498 2811.417961 96 85 58
1110.387611 415.711498 2811.417961 96 85 58
1102.632618 425.851679 2808.875656 162 152 105
841.447067 1353.182602 1776.652908 45 46 42
589.707327 1035.243511 1951.554871 77 74 43
812.089825 735.283995 2364.191437 126 120 97
945.061207 580.379391 2592.738342 35 29 18
776.550293 1248.638535 1856.943321 85 97 85
776.550293 1248.638535 1856.943321 85 97 85
875.984287 634.900808 2509.544563 101 96 87
766.309357 1225.779533 1874.624825 196 201 174
954.235363 610.335207 2582.992744 167 152 113
954.235363 610.335207 2582.992744 167 152 113
808.432961 752.181816 2366.445923 139 135 76
808.432961 752.181816 2366.445923 139 135 76
805.823708 761.609888 2356.436920 45 37 24
785.098648 1395.136833 1724.538040 149 150 100
785.098648 1395.136833 1724.538040 149 150 100
494.577837 740.550613 2207.991982 72 63 54
1134.829807 374.986982 2915.783119 109 99 52
703.789711 1434.263420 1643.389130 173 169 168
444.141674 713.843250 2210.299492 253 255 254
1257.848358 1738.724709 1650.228882 163 165 143
789.341116 1373.184013 1751.192093 114 104 64
944.910431 582.761145 2614.037323 55 48 21
715.911913 1400.930119 1684.960747 188 185 171
807.603741 784.736156 2341.770554 74 68 61
847.294426 1371.468925 1786.250114 35 40 39
847.294426 1371.468925 1786.250114 35 40 39
876.575851 661.030769 2503.821373 117 116 106
1132.813644 386.624146 2919.347191 104 93 55
1129.773235 408.526802 2898.688316 74 62 26
794.633913 1399.805069 1735.162354 164 152 110
939.323997 572.864628 2633.456993 103 99 74
867.897224 1374.695873 1800.411797 113 111 103
1060.091400 448.119974 2823.086929 51 44 17
1126.388645 378.626585 2929.759407 115 103 67
441.247797 690.766478 2251.384163 39 32 29
748.627424 1406.403255 1709.659576 83 75 45
733.369303 1408.128738 1700.277328 173 166 103
801.845837 821.634674 2327.183914 115 108 93
801.845837 821.634674 2327.183914 115 108 93
708.282471 1402.653408 1695.524216 159 156 95
708.282471 1402.653408 1695.524216 159 156 95
774.856663 1282.270813 1852.275467 90 101 28
777.107239 1284.027004 1852.009201 90 101 28
701.707840 1428.436661 1668.873405 167 169 150
832.565212 742.997932 2428.029442 129 122 105
942.736530 643.801689 2588.230896 44 42 24
728.132963 787.764549 2328.631973 16 16 10
692.855549 1420.361233 1674.520874 87 91 50
1048.473835 526.825380 2766.212654 162 146 93
737.483978 1406.306267 1714.640808 143 143 95
797.409296 784.841108 2374.729156 151 142 104
952.317905 640.283823 2607.382774 187 186 118
952.317905 640.283823 2607.382774 187 186 118
636.765432 1680.446434 1386.150169 170 176 175
730.231762 804.219437 2322.190857 60 63 48
1038.594913 537.307501 2764.837074 165 148 92
626.291132 1660.514069 1404.492950 130 130 130
727.864695 1421.939659 1703.416061 174 163 106
872.924137 673.131227 2544.738197 20 15 16
872.924137 673.131227 2544.738197 20 15 16
872.388649 1392.474937 1814.392471 89 90 80
714.193726 1445.800877 1678.844833 163 159 111
784.609509 1255.156994 1912.508392 118 123 92
888.099194 687.308788 2554.510498 64 62 52
693.149900 791.795874 2345.037460 50 47 42
943.409729 552.642202 2728.037834 87 79 50
847.333241 673.308945 2553.529358 18 15 17
787.081909 1264.233875 1913.532829 153 158 113
857.121658 740.749025 2500.547600 23 20 15
742.931890 1436.239052 1717.553329 105 100 55
830.065632 828.890324 2397.644043 107 106 80
868.029976 1406.804848 1817.352295 128 132 126
826.913261 734.228706 2503.904343 18 16 15
862.871075 752.310753 2506.184006 125 120 75
995.942879 498.311806 2843.200684 152 138 89
718.041992 928.011322 2247.629166 21 12 9
867.654896 744.275999 2520.838737 154 148 81
929.173660 547.946787 2760.601425 135 128 71
901.347160 709.597588 2576.715088 78 77 63
756.984854 1438.756275 1734.649467 94 95 69
756.984854 1438.756275 1734.649467 94 95 69
1031.682777 471.477652 2901.747322 170 153 96
935.515785 706.335211 2606.243515 123 124 98
941.814995 707.794809 2608.774185 58 56 38
921.154785 706.988955 2598.803902 136 135 109
921.154785 706.988955 2598.803902 136 135 109
915.924931 559.774446 2754.823303 87 78 65
929.454994 704.647970 2615.054893 113 106 89
803.569794 811.070347 2436.069679 35 26 17
837.099934 863.817120 2399.235344 45 36 33
791.168880 792.909956 2451.214409 83 83 71
727.178764 1474.545097 1695.828438 180 175 172
920.064354 707.138681 2619.148827 86 84 84
791.056824 794.815540 2459.462166 23 22 18
792.131758 796.227169 2458.649445 23 22 18
890.989304 532.166767 2794.027901 50 43 34
912.624168 553.275967 2784.366226 45 39 28
904.808521 1421.759224 1850.431252 176 178 156
767.010450 1448.791790 1749.018478 64 62 32
801.985455 1289.034748 1939.783859 83 87 45
777.826738 917.393684 2327.120781 172 157 154
786.925793 813.653088 2446.710014 127 128 84
743.206978 955.360603 2273.321724 26 20 15
829.218197 876.905537 2404.666519 57 47 40
753.559494 1466.955090 1732.336998 186 180 173
800.744152 1293.013477 1945.530128 170 176 135
737.815142 1003.193474 2226.017952 66 64 53
737.815142 1003.193474 2226.017952 66 64 53
745.750618 974.678135 2261.888885 41 32 19
1001.220608 343.665075 3081.666565 186 173 117
941.402721 696.635914 2669.639015 88 87 73
816.130543 1461.215591 1774.594879 108 111 89
802.798748 1293.810558 1949.510002 74 77 52
766.126919 1456.388569 1754.234886 166 163 132
845.361614 789.370823 2522.115898 113 123 81
820.333481 1461.273670 1778.934669 138 126 78
826.184940 792.117739 2513.442039 29 27 16
855.048847 777.454996 2545.103645 15 16 7
989.781761 304.454374 3135.341072 188 179 112
934.772873 656.039476 2722.659302 110 100 66
934.772873 656.039476 2722.659302 110 100 66
841.609192 792.885590 2524.469185 156 158 122
922.797585 128.895795 3298.855209 204 190 101
922.797585 128.895795 3298.855209 204 190 101
816.655540 883.226585 2417.369080 80 86 85
843.612194 796.401215 2528.200722 46 42 24
988.363743 355.252719 3092.984390 154 146 86
811.905289 1308.399296 1953.442574 98 91 72
811.341000 1472.412300 1773.697662 152 155 130
808.814049 1309.694386 1951.480675 100 92 62
817.975998 1472.683239 1778.522110 177 172 163
924.516964 539.627743 2865.888786 102 90 50
727.114820 1738.214874 1440.622997 87 89 83
764.204216 1477.638245 1748.451996 166 164 163
916.876030 1443.402386 1866.471672 167 166 152
822.818470 1473.994637 1783.412170 148 146 138
771.917343 924.352264 2365.027618 93 102 82
810.079193 1309.216690 1960.743904 76 73 59
918.690586 611.448193 2790.329361 39 34 25
983.137989 410.700989 3046.878242 79 65 23
884.856701 654.577208 2725.778770 67 67 53
851.069260 762.759972 2589.965630 120 115 100
765.377378 950.994015 2342.004204 104 118 100
771.880627 1495.256996 1739.925385 175 170 171
977.038002 331.815267 3142.869377 74 69 44
766.890574 932.870483 2366.144562 38 45 40
755.307674 1740.113449 1460.219383 130 126 107
755.307674 1740.113449 1460.219383 130 126 107
766.127634 1769.787407 1434.400082 83 85 95
985.236931 418.762636 3064.201927 50 46 28
985.236931 418.762636 3064.201927 50 46 28
765.467930 1767.362213 1438.442421 197 195 194
949.309444 451.234579 3010.783958 186 173 121
955.082321 533.023024 2922.907639 187 166 111
893.568325 648.836613 2761.095047 102 101 80
769.329691 1771.662521 1437.109947 179 181 189
915.166569 658.383083 2766.652870 119 114 83
941.163826 401.023626 3069.921112 46 37 17
972.086143 355.870223 3140.040207 139 125 73
945.743370 542.939186 2916.431046 109 91 44
945.743370 542.939186 2916.431046 109 91 44
734.701347 1644.084358 1565.847492 192 186 187
784.297085 930.087662 2397.957230 123 124 98
840.804768 1489.693546 1796.972084 60 59 61
823.490334 1328.209591 1971.265602 76 68 51
828.763580 1380.945396 1914.542007 100 108 43
769.609070 1774.030495 1439.507866 179 178 187
895.468616 637.437630 2791.295815 53 49 30
823.913002 1492.384243 1787.109566 25 27 27
910.043049 632.927370 2805.551910 128 125 97
776.750135 1531.523323 1718.886757 135 134 136
755.951071 1574.171448 1659.794617 190 185 186
932.005787 474.129581 2997.877502 172 158 109
784.743500 1521.918011 1735.510826 66 71 80
235.342646 914.085484 2144.031525 61 65 29
778.323603 942.074966 2391.763878 29 23 16
778.323603 942.074966 2391.763878 29 23 16
834.580135 1479.639816 1811.422920 88 85 64
879.340744 1470.345020 1845.826149 51 55 44
895.538330 614.762592 2828.678322 66 56 38
915.955067 513.332319 2956.057930 182 168 115
915.955067 513.332319 2956.057930 182 168 115
817.255020 1521.752167 1756.677055 52 55 69
744.926500 1677.318573 1542.744446 119 121 131
896.952534 558.293343 2898.660088 165 162 111
820.323849 1338.173485 1970.249748 78 69 56
743.357134 1635.054779 1592.671871 150 156 161
742.741060 1629.869652 1598.282528 142 148 159
872.043896 579.922104 2865.696144 58 44 25
883.144951 586.699724 2864.138603 60 50 33
889.087868 560.529661 2899.063110 61 57 28
832.968235 741.354227 2663.126373 107 101 82
837.872696 1508.784199 1787.547684 159 157 157
837.930965 1508.697701 1787.679100 159 157 157
778.531122 1532.469368 1730.828857 39 44 53
951.041412 437.201023 3075.523376 37 31 24
824.515724 1341.042137 1974.994087 140 135 96
824.515724 1341.042137 1974.994087 140 135 96
737.682819 1654.070282 1571.178150 105 111 122
773.040867 1542.433548 1717.828560 120 126 137
754.145670 1583.795547 1660.904694 74 77 82
844.272995 1518.952847 1782.439232 172 171 167
884.565353 561.402082 2904.033279 124 119 94
737.638187 1642.829132 1586.232567 85 94 104
779.938459 949.197102 2406.910896 137 121 74
769.426966 1737.303925 1495.237732 174 172 172
755.730820 1710.991669 1518.507004 128 133 142
759.000301 1554.499722 1702.253342 123 127 132
759.000301 1554.499722 1702.253342 123 127 132
839.959717 1495.983791 1811.714554 40 40 34
761.378813 1551.838112 1707.366371 51 58 67
768.897724 1762.034798 1468.757820 133 136 140
887.209988 521.817732 2963.454437 176 163 107
948.970032 314.894748 3237.815094 22 17 19
307.641053 837.542534 2304.346275 85 80 79
885.250854 473.043251 3024.897003 135 132 77
763.547611 1548.106575 1716.386795 40 48 61
763.547611 1548.106575 1716.386795 40 48 61
760.248756 1556.110287 1706.229973 63 69 76
835.772705 1513.113880 1795.062828 65 67 67
813.636398 915.529156 2477.971840 124 114 84
939.336681 363.486195 3188.045311 205 198 141
758.907700 1765.647888 1464.547348 180 181 172
810.635662 877.862549 2524.767113 171 157 109
805.508900 903.191471 2493.025780 91 75 29
772.704983 1544.991684 1728.957939 101 104 109
764.206123 1570.012569 1695.480347 53 57 68
863.462162 516.998720 2974.209785 25 20 17
920.902729 327.953243 3225.271988 107 101 48
356.501484 872.878742 2300.707626 95 86 77
766.976976 1545.937538 1726.351738 100 97 99
333.181572 823.278904 2349.024391 27 23 22
763.911963 1553.258038 1718.153191 34 41 58
753.344584 1566.580200 1700.017548 50 57 66
808.919716 873.395538 2543.303871 86 77 43
808.919716 873.395538 2543.303871 86 77 43
765.053988 1556.779575 1719.849396 39 46 55
736.697388 1654.574013 1590.538216 85 89 107
765.985680 1552.026558 1726.277733 102 104 112
790.662289 980.548573 2410.423660 169 144 82
729.951286 1653.300476 1589.096832 111 124 140
729.951286 1653.300476 1589.096832 111 124 140
758.097553 1594.801521 1672.316742 131 134 142
777.630138 1545.846272 1739.855194 119 121 129
810.822868 836.186028 2591.730690 75 61 38
813.210201 826.671505 2605.014038 69 60 33
929.655743 399.353099 3168.519020 193 183 123
758.390856 1591.995430 1677.550316 104 114 121
906.623936 398.312163 3159.111023 100 102 73
814.168549 841.085148 2591.635132 74 59 20
773.773527 1538.639736 1750.271034 47 51 62
760.882998 1648.668480 1614.009094 110 112 120
760.846853 1615.890121 1652.762222 174 175 179
764.140177 1576.462841 1701.237679 172 177 180
837.662697 526.557827 2978.788567 16 11 8
737.255001 1659.434891 1589.907646 24 35 49
743.143511 1655.751419 1597.455406 15 20 23
831.483555 1527.452850 1794.540405 20 21 25
900.850201 1487.091541 1878.254890 121 122 106
422.304153 1060.459518 2139.778328 108 103 78
927.946472 437.227058 3135.134315 55 53 13
765.156555 1592.096329 1685.981750 181 178 180
764.366627 1787.609291 1454.155636 181 184 188
814.600086 758.743048 2699.010468 51 36 4
898.014545 467.499065 3086.692238 156 146 99
744.238281 1654.697990 1602.197075 33 41 48
744.238281 1654.697990 1602.197075 33 41 48
827.248096 1533.045387 1789.138222 36 38 39
800.572777 878.686237 2552.472496 147 131 102
812.277603 1541.503334 1772.187614 33 32 41
740.025473 1659.458923 1595.720291 18 21 29
816.180420 1540.012932 1776.491356 40 43 51
907.857895 367.761302 3214.841843 189 183 118
849.246788 531.896925 2990.417480 82 77 62
852.349663 1522.190475 1816.637802 58 57 61
