ply
		format ascii 1.0
		element vertex 10437
		property float x
		property float y
		property float z
		property uchar blue
		property uchar green
		property uchar red
		end_header
1695.991756 -170.102906 412.452840 39 40 41
862.292638 -91.250397 253.205231 69 76 100
652.613122 -89.381263 215.501048 112 115 122
625.019029 -90.972442 210.413449 101 107 115
625.019032 -90.972441 210.413424 101 107 115
1963.723481 -201.647461 459.132538 67 70 46
1335.594710 -131.040865 339.072988 127 133 136
1335.594710 -131.040865 339.072988 127 133 136
637.101020 -90.227423 212.357419 168 168 164
1016.964509 -101.070349 280.267193 161 163 172
942.295125 -95.756170 266.651478 48 54 66
979.668285 -98.359071 273.303680 160 162 170
998.874950 -99.787655 276.972737 47 52 59
930.946435 -94.995796 264.328642 148 151 157
863.834210 -91.301802 252.055948 139 148 152
833.202647 -89.992920 246.184405 155 157 161
1278.307107 -125.170707 327.325368 69 76 88
620.793836 -91.313666 208.904786 166 167 168
1207.383193 -118.106807 313.223398 153 154 157
2638.454185 -283.755657 585.421338 109 116 108
2638.454185 -283.755662 585.421338 109 116 108
887.517026 -92.803016 255.744247 139 142 147
1124.565667 -110.224852 298.229019 49 56 65
1591.078140 -158.676694 386.255562 58 68 77
1004.538362 -100.320223 276.651846 148 156 163
1265.929595 -123.815881 323.755533 145 156 167
1620.485899 -161.934517 390.875984 120 128 137
1239.117450 -121.243118 318.649944 150 155 155
846.865327 -90.669317 247.702909 52 60 67
1113.246477 -109.304713 295.322232 154 158 163
1140.932956 -111.806733 300.360703 155 163 174
1068.538013 -105.492851 287.193878 145 153 159
648.679832 -89.673048 213.246055 176 177 176
1503.089040 -148.707712 366.359897 118 138 154
1462.088543 -144.929790 358.476390 111 134 157
1118.565224 -110.080097 294.251826 59 65 76
1058.611655 -104.721664 283.644616 53 64 73
1227.258974 -120.264638 313.551164 28 30 35
-599.375805 162.517848 -9.207569 128 120 77
-572.425866 158.879445 -4.771255 122 112 74
1830.339522 -186.597602 422.365048 144 145 118
1428.758900 -141.191192 349.474822 58 65 79
1598.493612 -159.903825 380.536547 131 142 155
627.388010 -91.034297 208.342541 124 127 128
4641.129804 -540.831227 906.933191 255 254 254
1377.248635 -135.819563 338.669714 149 152 152
1186.276338 -116.552610 303.751209 136 141 149
2476.399057 -265.270188 536.883088 97 101 92
1331.318402 -131.174613 328.456430 118 120 121
1280.593567 -125.799467 319.200461 47 54 62
1206.972871 -118.567337 306.302832 57 64 78
1176.783130 -115.568475 301.183896 56 68 80
4914.135810 -574.850858 941.332887 114 110 79
1465.933171 -145.716073 352.304735 115 130 138
-542.312733 156.842132 6.916900 172 157 96
1434.362280 -141.989597 342.384424 75 86 93
1072.733130 -106.336671 280.226674 115 125 131
-542.143236 155.906861 7.059966 174 158 93
-1285.918150 243.602366 -105.387517 148 134 86
1931.191052 -200.510910 415.514428 115 113 56
1373.269222 -135.901768 330.263286 141 148 158
-1045.144179 215.044992 -57.496488 121 108 61
1761.097233 -180.410548 390.179789 61 62 56
-467.558932 148.097331 25.590792 187 176 107
5756.613701 -685.361240 1034.457076 160 152 95
1726.121545 -176.612235 382.769222 112 114 116
-1870.342046 318.469770 -174.272091 254 254 254
-1870.342046 318.469770 -174.272091 254 254 254
1682.485202 -171.824737 370.373449 113 114 115
6394.404250 -769.205049 1110.719935 95 91 58
1758.426407 -180.967404 381.157192 59 58 39
-818.007006 187.864630 -22.356246 104 103 85
-818.007007 187.864629 -22.356246 104 103 85
-777.743834 183.426894 -15.459381 42 34 27
1852.046206 -192.439113 392.227053 138 126 57
-1223.703630 237.588121 -76.407868 27 24 24
-1223.703630 237.588121 -76.407868 27 24 24
-861.216347 192.486361 -25.507879 112 114 99
3043.920396 -343.641262 545.480660 187 181 135
1363.359742 -136.511188 312.954149 162 166 168
-2281.361810 38.596988 322.776340 51 69 80
-664.681556 170.582092 9.145281 58 52 42
-636.941700 167.308424 13.690288 52 43 31
-899.864448 198.585158 -20.466151 70 81 75
-899.864448 198.585159 -20.466151 70 81 75
-1032.539258 214.861092 -37.886033 115 129 116
1600.210864 -163.285903 341.325443 85 87 57
604.681023 -93.037147 196.858584 129 129 130
-642.121967 168.132522 15.779426 119 108 75
-876.335627 195.869342 -12.837116 68 73 59
-876.335627 195.869342 -12.837116 68 73 59
3064.632231 -345.339743 548.511710 187 181 135
1787.438888 -185.436994 364.873658 137 134 93
-1023.394406 213.322316 -30.715726 29 25 21
-557.343223 158.958129 30.906148 66 57 36
-466.064893 149.042864 43.660569 85 76 48
-1306.600180 248.104433 -69.000764 33 27 22
-451.735710 147.689742 46.815646 74 67 39
-566.278873 159.911170 31.579930 155 138 86
-608.022223 164.356756 26.180704 127 123 77
6851.596673 -848.496072 957.128229 142 135 81
1344.089051 -135.335755 293.497051 90 94 62
1344.957096 -135.220175 293.602944 90 94 62
-422.244131 144.981106 52.707500 25 21 21
-1774.342027 307.050674 -120.286305 90 88 76
-1422.800111 261.620190 -77.900728 173 156 95
-1194.269460 234.503672 -47.601397 185 170 104
-388.903631 141.221492 58.896793 144 127 83
-432.943314 145.957918 54.993500 39 33 31
-1502.772934 273.238899 -81.966872 67 61 50
-1230.722692 239.013857 -46.446889 59 52 44
-486.031529 151.409979 49.383702 163 150 95
-2876.444891 450.716833 -240.448705 23 21 22
-504.687583 153.727093 47.340766 168 154 98
-4054.808562 615.154389 -348.706512 33 30 22
1786.540252 -186.429902 348.868693 174 168 106
-376.924738 140.198971 64.195478 163 149 97
-399.788838 142.394438 61.386015 198 188 131
-1228.641124 239.201170 -40.925771 183 171 118
-414.053492 144.241591 60.920032 25 22 18
-6519.878811 939.420719 -614.465126 101 93 62
-6519.878811 939.420720 -614.465126 101 93 62
1787.739419 -187.094098 343.266928 173 165 99
-1328.754254 249.351687 -49.844056 191 181 115
-567.326745 162.119619 44.927288 34 31 27
-1048.967090 217.364194 -14.731400 116 112 60
-1048.967090 217.364195 -14.731400 116 112 60
-1405.652671 261.111105 -58.062424 188 178 113
-1405.652671 261.111105 -58.062424 188 178 113
-1521.074089 276.063006 -72.387522 66 58 49
-1386.857916 259.943145 -52.356956 195 181 124
-1021.503823 213.962380 -8.180119 191 177 111
-812.739414 189.668808 17.754949 187 175 108
-981.269067 209.395583 -0.521486 88 74 47
2234.227680 -242.349137 393.568293 104 115 100
-1493.131452 272.894709 -59.125425 178 171 119
-760.108851 183.348120 26.862426 45 39 31
-663.801824 172.314791 38.184363 46 39 27
-706.432928 176.982750 33.613319 44 37 25
-636.912205 168.936841 43.756871 30 26 25
-622.105389 167.533096 45.067643 29 23 22
-860.219052 194.975267 19.049756 86 81 59
1339.299385 -136.197656 273.675353 91 90 50
-695.466401 175.769215 39.481319 24 20 19
-1129.257592 228.219951 -7.334655 103 101 68
-362.591307 139.506836 78.986805 189 185 124
-1328.051729 252.391058 -27.110805 93 87 75
-385.296124 141.809626 75.503109 152 143 78
-1592.611784 286.540986 -55.238412 56 50 47
-1186.153457 235.448148 -7.785514 114 109 88
-1544.855078 280.516177 -47.877130 160 155 105
-1388.336743 261.003363 -28.445407 50 44 36
-428.746028 146.370627 72.582304 192 179 111
-1489.256294 273.496128 -38.722718 50 46 39
-6359.596161 924.982489 -458.942611 31 27 21
-6359.596161 924.982490 -458.942611 31 27 21
-599.491869 165.344110 58.613752 52 45 32
-684.123345 174.953712 49.946067 80 73 57
-684.123345 174.953712 49.946067 80 73 57
-623.781278 168.028569 57.796991 40 34 30
-1604.944052 288.826190 -43.143937 63 57 45
-720.655954 179.238546 48.896439 134 132 98
-7558.067532 1086.934207 -530.912829 45 37 30
-6384.606439 919.298235 -422.815417 66 63 47
-417.555396 145.614610 79.195693 189 184 119
-417.555396 145.614609 79.195693 189 184 119
-628.944095 168.771936 60.451300 74 73 60
-1626.152677 291.992994 -39.472872 155 148 97
-1484.625789 273.498702 -24.508875 55 46 41
-1484.625789 273.498703 -24.508875 55 46 41
-694.812006 176.627222 55.691402 52 46 43
-694.812006 176.627222 55.691402 52 46 43
-1580.963698 286.244541 -31.322845 123 109 60
2943.418857 -337.802252 419.254913 112 141 135
-345.215402 138.697103 92.408738 89 77 31
-753.048390 183.372196 51.723765 88 88 83
-435.344854 147.330417 80.854892 184 175 113
-5434.163158 802.918612 -310.956561 39 34 34
-773.338681 185.805083 50.697364 53 48 47
-378.328039 141.784431 88.359239 71 62 60
-1607.020161 289.581988 -29.288385 150 143 89
-723.696313 180.735329 59.095534 92 93 68
-380.352507 141.831925 90.336441 192 180 120
-422.976492 146.292178 85.641669 181 171 107
-1469.647339 274.345248 -9.377566 157 139 78
-1469.647331 274.345286 -9.377565 157 139 78
-1573.279637 285.973789 -18.908785 157 151 97
-436.259496 147.925689 87.544656 13 11 11
-713.575331 179.024983 67.059176 120 107 74
-384.337922 84.684374 150.784024 40 36 32
-3386.328025 531.310030 -108.927761 22 18 16
706.830154 -89.900102 190.914598 156 148 136
706.830154 -89.900102 190.914598 156 148 136
-407.857473 144.886404 93.880964 173 158 105
-458.359885 150.527261 89.881196 108 103 67
-535.904286 159.088819 84.916172 38 34 32
-384.499039 143.277583 97.874890 203 191 131
-804.315048 189.108452 65.220147 33 30 27
-403.835247 144.504640 97.601151 178 163 90
-1137.018618 229.858829 40.148159 34 31 29
-355.175953 139.905943 102.515697 59 55 50
-547.135102 160.401837 87.271247 105 103 76
-362.238140 140.745014 102.148665 192 183 123
2238.316592 -248.373803 318.518967 77 104 99
3092.787230 -360.194234 381.002334 127 152 138
-378.212635 142.123377 102.497333 53 46 41
-439.177831 148.902949 97.674547 132 129 82
-658.790099 173.233401 81.396536 82 82 60
-362.794529 140.758817 104.458279 57 52 36
-392.255185 144.007552 102.372713 45 40 35
-1401.720307 265.827694 25.230636 111 129 106
-1401.720307 265.827695 25.230636 111 129 106
-448.972649 149.829153 98.285030 41 37 30
-416.496098 146.175211 101.443781 172 169 106
-465.466049 151.529726 97.831808 125 118 80
-1248.070157 246.370397 39.657355 167 154 100
-365.887132 141.217817 106.713512 144 142 95
-794.986004 188.027756 85.879686 20 16 15
-1487.002308 277.469106 24.021662 34 31 37
-1184.044331 238.445726 47.640237 175 160 106
-1653.801394 297.033646 10.799520 20 19 19
-358.908575 140.535097 108.500966 51 45 36
-1290.123060 251.887110 41.033475 68 70 65
-370.447225 141.654676 107.825656 59 51 41
-1001.223844 214.775718 62.796579 179 160 102
-839.925322 195.090257 74.512508 117 114 88
-801.336738 190.541409 78.183047 53 44 36
-913.908452 204.439295 70.311004 191 172 104
-1211.467882 241.924545 49.819320 149 145 100
-1274.038553 249.590647 46.348280 123 125 102
2974.538380 -363.450282 148.948734 158 175 177
-252.338176 129.777182 119.660025 255 255 255
-331.576125 137.983497 115.246539 46 38 31
-1109.806472 229.372504 60.263218 83 77 64
-657.128435 173.707344 91.276141 162 147 94
695.054793 -90.180738 183.582808 151 142 129
-341.320897 138.855253 117.943174 145 141 92
-341.320898 138.855252 117.943174 145 141 92
2072.734500 -227.730840 252.566120 60 72 35
2072.734500 -227.730840 252.566120 60 72 35
-455.292217 150.848809 109.154161 13 11 11
-455.292217 150.848809 109.154161 13 11 11
-1449.933066 273.447981 49.182391 52 73 81
-398.260645 144.802259 114.719595 201 195 140
2286.604343 -257.380565 283.993927 89 106 89
-970.855320 211.877648 81.568787 58 48 39
-885.389726 201.600222 86.697734 74 62 43
-1038.375154 220.745154 78.866204 55 45 35
-643.792537 172.569243 102.784854 70 59 41
-359.717828 141.157126 120.069119 34 31 24
-243.424741 130.081156 128.508689 169 153 95
-603.069423 167.835392 105.700525 59 53 39
-385.653847 143.885851 118.641996 96 94 63
-1363.115151 262.472158 62.729810 61 52 42
-647.085150 173.036530 104.936911 144 128 85
-1139.186142 233.637265 77.180655 185 170 119
-437.359638 149.190917 116.042827 197 188 131
-1184.556647 239.315199 75.900404 187 173 118
-276.409781 133.013587 128.509665 139 132 75
-1408.350802 268.216398 63.620291 138 148 121
3507.029778 -421.304711 331.845798 114 127 103
3507.029778 -421.304713 331.845798 114 127 103
765.272858 -91.318095 182.839502 160 150 103
765.272858 -91.318095 182.839502 160 150 103
-697.921503 179.136638 104.858770 184 172 120
-697.921503 179.136638 104.858770 184 172 120
-614.436908 169.419420 110.326462 148 135 81
-614.436908 169.419421 110.326471 148 135 81
2087.074343 -232.283847 256.746790 45 57 31
-502.504994 156.472174 116.373310 149 148 92
-851.244768 197.760661 98.512032 174 168 114
-399.160650 145.400641 122.816820 152 155 108
-764.812815 187.383139 103.860025 174 166 114
-1428.217428 271.340645 69.308518 57 57 54
-4236.250002 650.335895 -48.456425 93 101 89
-1305.145819 255.981244 78.511172 189 179 126
-1305.145819 255.981244 78.511172 189 179 126
-485.536946 154.672984 119.291534 130 133 89
1785.348426 -194.853055 234.111684 171 162 76
-244.346507 130.393402 134.169590 102 98 62
-643.321925 173.102171 115.318336 156 153 100
-5345.976628 803.561759 -76.084404 24 19 19
-4136.892675 637.619528 -28.098400 40 36 33
-630.695342 171.668178 117.226929 41 37 32
-3440.299599 543.456862 3.796457 108 109 83
-1711.213009 306.734021 75.712408 14 13 12
-3819.135990 595.389965 -9.377792 29 26 25
-4540.914303 694.499462 -34.623351 100 101 70
-3220.302555 512.653996 23.549907 22 20 20
-1553.563612 288.790781 81.215082 143 133 92
-6217.342017 925.474253 -87.105864 116 113 86
-484.442281 154.864147 126.595153 72 69 62
-1856.575069 330.464480 77.144195 50 51 43
4523.515612 -568.515898 278.573605 119 142 136
2243.791357 -254.183737 245.983171 90 105 100
-390.528790 144.821204 132.404038 57 45 41
1783.380641 -195.505580 220.457876 180 174 104
-4268.486316 658.491443 3.222693 25 21 13
-328.135501 138.538261 140.222820 30 27 23
-3175.831556 509.985017 51.009207 35 33 23
-3534.503209 558.707091 42.267298 27 25 21
-2766.013004 454.463425 64.845486 25 23 13
-5337.410241 808.895211 -8.187495 67 67 52
-499.493120 157.227768 132.760830 15 13 13
-475.726321 154.100749 133.693404 171 171 115
-376.272592 143.069724 140.708019 23 20 20
-378.118960 143.829639 140.660983 23 20 20
-429.450145 149.082227 137.725322 89 78 74
-274.826999 134.024740 146.237714 121 115 92
-3239.827999 520.179101 66.151671 23 20 19
-391.513234 145.321649 140.283944 47 39 38
-698.545898 180.658117 133.001888 90 84 66
2073.075583 -233.954863 213.699093 32 42 23
-398.636322 146.224339 142.408421 148 137 116
-456.392859 152.315004 139.230114 88 76 72
-763.101500 188.662362 133.491704 108 101 67
-736.330918 185.385973 135.492266 33 29 29
-4763.440977 728.752368 57.453089 26 22 21
1780.128839 -196.225193 199.382293 173 172 94
-598.178509 168.758462 140.670533 20 16 17
-439.147453 9.724505 52.387009 33 26 25
-437.159160 150.460627 144.684578 136 134 106
-476.966345 154.813075 143.880261 147 146 104
-424.444426 149.030029 146.412988 163 158 112
-334.811269 138.798644 152.128865 255 255 255
3653.845687 -449.144230 229.047121 95 118 104
4193.586127 -523.554970 239.070130 86 116 120
-587.337364 167.630871 145.154537 106 97 78
-587.337364 167.630871 145.154537 106 97 78
1330.285061 -142.242289 179.624427 84 78 18
-268.877260 133.195859 152.409153 191 175 115
-261.380688 132.521280 153.082392 138 123 66
-772.620088 190.290115 143.898861 45 40 35
-278.342770 134.186148 154.180344 66 64 40
-1392.385114 269.348457 138.043020 135 141 104
-1138.730824 236.780273 141.359602 41 36 34
-502.774437 158.491920 151.057091 30 28 20
-466.230429 153.750304 151.110313 73 62 50
-811.003112 195.275421 148.237082 116 115 87
-943.764159 212.023889 146.125209 140 135 91
-522.870713 160.765150 151.786375 37 32 25
-865.290923 202.322031 148.551016 42 38 37
-568.114809 165.940302 152.160295 31 27 21
-436.366960 150.622903 155.077946 178 167 101
-504.238342 158.601950 154.438692 150 135 85
-757.582954 188.723563 151.398940 37 32 31
-987.962682 217.893815 150.011740 52 48 38
3730.986551 -461.225448 202.232556 55 84 83
-1339.070135 263.210795 148.381715 13 11 11
-413.709747 148.358553 157.515925 41 34 29
-2460.367360 416.377873 148.138528 141 144 120
-961.012524 214.551944 151.533268 38 35 33
-1014.112402 221.339262 151.080166 121 113 79
-1118.399222 234.883279 150.526896 89 87 52
-1118.399222 234.883279 150.526896 89 87 52
-4010.140996 629.294150 126.270769 54 53 46
-420.814615 148.970656 158.419260 56 51 43
-1071.677404 228.833254 151.946788 74 68 50
-468.088854 154.150173 159.014831 175 157 92
-267.236123 133.227052 158.662475 191 172 112
-681.418527 179.781266 157.378778 39 34 28
-936.750513 211.615334 156.734311 31 26 27
-1032.636249 224.132142 157.339533 44 39 34
3741.783253 -464.114293 185.081317 127 150 134
-454.204762 153.246421 162.344156 42 33 26
-1273.091366 255.642596 157.817534 87 85 63
-1273.091366 255.642596 157.817534 87 85 63
5319.955535 -683.718378 191.785438 79 113 112
-379.625166 145.257576 163.275039 254 254 254
2177.461610 -250.956912 176.456659 32 36 34
-474.023714 155.547565 164.313352 53 46 21
-277.682189 135.427803 164.322597 99 94 68
-1241.148931 251.227554 162.975827 50 43 30
4636.119525 -589.062633 172.823088 48 67 86
-448.636421 152.545839 166.601072 192 185 129
-493.481242 158.020321 166.778665 75 75 44
-493.481242 158.020321 166.778665 75 75 44
-478.141908 155.974450 167.415969 182 174 108
-2668.037357 450.060178 182.106226 59 54 54
-3451.087356 554.725008 172.027533 55 50 48
-4264.617834 668.493066 181.867330 149 152 101
5524.701696 -715.063242 148.504797 93 125 131
3565.070532 -441.906691 152.494031 59 91 114
-3649.226832 583.188678 189.287901 49 45 33
6504.507256 -853.821833 127.334341 50 57 64
-1568.609589 295.959648 192.068176 23 20 24
-499.588371 158.637240 173.688707 188 181 111
-1847.644547 334.697390 196.766934 31 28 25
-3829.538453 609.196043 204.842249 87 79 55
4719.201596 -603.494984 129.035092 100 129 132
-1221.413486 249.268286 181.219450 207 193 142
-585.067236 169.098118 180.486543 194 185 122
-5711.970000 874.903240 244.042947 47 42 38
-5042.583426 779.892476 235.394595 54 46 35
-783.449443 193.769407 182.834286 50 45 28
1005.747790 -109.385421 154.723121 173 173 165
-3489.632716 562.739462 220.247465 133 141 99
-566.933114 167.223351 182.913764 114 111 58
-566.933114 167.223351 182.913764 114 111 58
-497.979621 159.101327 182.054008 141 137 85
-605.648329 171.723444 185.044165 165 151 90
-3894.994593 619.730962 234.074065 156 165 116
-805.355747 196.683698 187.891961 64 53 41
-5642.028149 865.102400 268.616145 166 168 108
-507.802583 162.752893 182.248034 141 137 85
-557.464107 166.157942 185.450581 190 182 118
1074.159325 -116.117740 151.668872 165 164 165
1393.046526 -152.645862 146.819384 123 126 105
6794.420550 -900.135791 42.791882 116 116 94
-8439.180918 1264.071879 327.671840 153 155 91
1249.872479 -135.235495 148.555179 172 169 166
1311.469968 -142.541137 147.727198 159 160 146
-1073.225296 234.251413 193.511873 200 185 131
3111.157489 -382.376399 121.395511 126 157 160
1466.668184 -160.248589 143.145782 135 142 155
-4972.941859 775.698555 281.592039 19 21 25
1160.079664 -125.415571 147.867206 104 107 110
-3236.953036 529.292266 250.520635 21 17 15
1145.255611 -123.634624 147.699875 108 112 118
1424.340456 -156.173912 142.175878 41 48 55
-565.142404 167.497577 190.443205 197 188 130
1048.771648 -113.553258 148.797978 99 103 112
3995.880156 -499.283759 70.587838 58 75 93
-1479.629070 286.378759 213.331222 185 185 143
-1890.703053 343.282831 231.051276 255 255 255
-1421.154928 278.769855 213.097977 194 189 132
1701.980703 -191.407733 136.170856 62 64 36
939.368299 -103.707691 150.379145 112 116 121
-705.004799 184.914308 198.220016 181 168 104
-555.740373 166.289752 193.283331 178 170 114
990.915679 -108.440247 148.709814 177 179 179
-665.431246 179.776507 197.496661 122 113 64
1385.938860 -151.932782 139.412242 102 108 119
901.645779 -100.804392 150.181511 85 91 98
1212.944777 -131.768219 141.870670 130 137 146
1775.946561 -201.428917 130.663497 163 156 69
1186.615808 -128.804098 141.995829 41 45 54
1113.752181 -121.047139 143.861590 53 60 70
-3162.601290 519.541205 272.485640 23 23 23
1592.975511 -177.541852 133.104689 138 138 137
-4427.908205 704.470414 307.079451 70 66 51
-732.709016 188.248519 204.137546 170 160 104
-732.709016 188.248519 204.137546 170 160 104
-2701.038480 454.486842 262.795358 249 249 242
1085.184361 -117.876100 142.952612 159 163 169
1121.490543 -121.771095 141.499837 123 128 134
868.974423 -98.484575 149.405031 175 175 176
1421.954051 -156.592950 135.218115 35 40 42
1507.296408 -167.396662 132.464672 157 162 169
1266.203000 -138.217377 136.462581 32 33 37
-899.962499 210.325850 216.749642 36 30 25
-899.962499 210.325850 216.749642 36 30 25
-826.401632 200.826270 213.724016 102 94 57
-1240.319373 260.135405 234.612491 255 255 255
1165.020565 -127.406714 137.631448 69 74 80
1720.074234 -194.703961 122.623321 149 143 72
1748.611435 -198.781364 121.593462 77 72 25
1123.824358 -122.288261 138.272908 151 157 166
1253.051314 -136.583654 134.002641 54 59 62
-810.145214 198.745284 215.606212 116 109 61
-5383.304899 836.692839 380.846897 40 39 31
925.443565 -102.829848 144.309285 61 67 75
1378.125427 -151.732071 129.592538 98 103 104
627.189033 -91.682671 154.804525 68 74 78
1779.203658 -203.475891 117.784309 167 155 76
1162.805464 -126.599162 135.475003 167 166 166
869.300107 -98.763155 145.671754 74 83 96
1245.581433 -136.112334 132.467241 130 130 124
1494.508591 -165.945481 126.217137 43 51 61
-785.786879 195.720785 217.675400 126 119 65
931.710302 -103.509572 143.111554 159 159 169
614.514463 -92.217628 154.790946 152 154 152
1364.055096 -149.888980 127.574038 47 52 59
628.513710 -91.674520 154.329645 153 156 158
878.194430 -99.301658 144.662375 163 164 169
1309.652963 -143.874004 128.413097 133 137 138
1524.013811 -170.239737 123.114484 149 151 152
1456.410540 -161.830231 124.937967 96 100 103
1393.395481 -153.751693 126.030429 39 41 43
-692.351370 183.966592 215.634016 170 165 105
1021.621266 -111.960865 137.997377 114 113 116
676.627498 -90.820367 151.910802 141 141 143
-1162.926747 246.904758 247.807642 76 73 56
1702.630916 -193.343297 114.413082 52 50 26
1340.744666 -147.547216 125.929627 123 126 128
3470.828153 -433.655584 29.764250 255 255 255
1594.772442 -178.258638 116.584270 139 139 117
1527.653140 -170.857471 118.710204 31 31 30
743.451175 -91.852186 148.894522 129 133 136
-4527.158957 713.494057 389.617281 255 254 253
881.200976 -99.663516 142.698599 173 172 172
842.953161 -97.120307 144.124193 162 166 172
-1029.989739 228.353714 240.516704 36 28 23
1781.420171 -204.216196 108.519962 152 142 62
831.475619 -96.407235 144.046369 147 149 157
-3291.704631 540.889830 332.844304 254 254 254
822.708412 -95.827492 144.191126 46 56 68
621.453360 -91.849757 153.370881 92 98 81
649.414935 -91.063371 152.307076 159 160 156
-1055.607260 232.052185 245.106328 105 98 54
714.866806 -91.212167 149.229848 165 164 160
1719.153564 -196.019381 108.040004 53 54 40
683.737321 -90.840854 150.438399 160 161 157
861.531825 -98.469920 141.646392 124 125 130
-851.809044 204.833995 233.921839 170 156 100
-1244.245599 258.031323 262.136074 110 94 57
-779.691687 196.019490 230.729338 253 254 249
817.289641 -95.555908 142.012325 183 183 183
-1274.067260 261.974074 266.808144 35 30 24
-841.218917 203.709395 236.759027 119 112 80
631.391262 -94.600264 150.841958 147 149 128
-792.380428 196.975483 234.796802 64 60 38
1726.565512 -197.464258 101.453762 70 70 40
-1041.101130 231.773343 254.874008 158 143 82
647.403431 -91.076750 150.031877 147 149 128
-953.311231 218.638374 251.177728 159 155 92
-1332.415157 270.469384 279.807566 31 25 21
622.234048 -91.620939 150.992235 153 157 125
-1464.928989 289.498967 297.246918 101 93 68
-1066.834693 234.655082 269.320170 255 255 252
-1514.625551 296.590342 308.074844 72 65 44
-1400.825960 280.806663 301.037751 88 79 50
741.665165 -92.277450 140.228920 130 134 140
627.262091 -91.376364 148.659423 45 49 43
624.076311 -91.476427 148.743238 174 165 116
-1583.481889 308.723755 321.346935 254 255 255
620.190556 -91.599679 148.618446 161 159 127
620.190556 -91.599679 148.618446 161 159 127
627.985550 -91.314869 147.973401 173 165 133
623.357091 -91.509818 148.004253 50 58 54
627.312752 -91.302608 146.970620 143 145 119
629.916448 -91.231349 146.068681 32 35 31
618.607502 -91.539194 145.867147 73 76 62
617.143450 -91.578066 145.207136 39 43 26
648.817722 -90.862394 142.689144 169 175 163
648.817722 -90.862394 142.689144 169 175 163
646.071598 -90.877173 142.859970 108 125 116
615.220911 -95.921308 113.543083 158 171 139
620.020838 -94.841252 112.638762 158 171 139
619.617556 -94.816398 112.673364 162 173 149
633.417909 -91.817118 112.962572 160 169 140
633.137718 -91.884939 110.155643 158 171 139
634.432938 -91.594191 109.911994 158 171 139
312.081503 -157.202173 156.526819 83 82 89
312.081503 -157.202173 156.526819 83 82 89
309.444879 -156.945947 156.725166 168 152 153
340.898008 -152.295256 152.720794 254 254 253
340.909372 -152.298608 152.719922 254 254 253
-4.474059 -133.622467 86.648730 107 109 110
-276.944035 -122.482720 33.116181 50 51 52
1458.501892 109.464746 368.817536 97 100 100
1458.501892 109.464746 368.817536 97 100 100
-257.625652 -120.672992 37.367028 107 109 110
-257.625651 -120.672992 37.367028 107 109 110
1480.764595 110.803530 371.114779 54 57 57
1503.878978 115.676895 367.990822 167 168 160
1496.313319 122.992334 364.581590 39 44 44
-390.510580 -113.644738 18.319530 126 127 127
-723.381239 -153.257357 -35.070657 76 76 76
-499.128636 -115.576539 3.800519 153 150 137
-933.893615 -143.664133 -68.916954 57 61 58
-711.586549 -143.284516 -28.497570 30 31 33
-4658.350871 -564.215184 -691.914592 139 140 139
-1177.669872 -185.766796 -104.076188 60 63 66
-486.797049 -107.681519 10.714773 110 117 110
-8756.403099 -1046.044078 -1358.025456 84 96 116
-1181.992221 -189.103424 -99.600228 122 128 130
-785.472906 -138.108240 -35.616973 80 96 103
6898.720784 642.774927 1232.712881 53 62 70
2256.966786 256.533650 464.654855 115 119 124
-1070.092594 -176.520373 -77.391343 118 125 128
-1212.735360 -181.680334 -95.297872 147 150 152
2039.506654 192.587387 421.916477 123 127 127
-1230.762014 -179.401866 -90.793184 43 48 56
1818.921954 183.311546 379.729888 122 125 126
1818.921954 183.311546 379.729888 122 125 126
-894.662032 -130.662619 -32.898165 61 61 54
-932.905551 -133.974016 -37.324927 116 118 122
-969.569667 -131.824600 -39.970125 118 118 107
-210.574485 -97.610000 78.183210 97 93 73
139.660871 -102.590839 130.081518 137 119 72
1743.532146 186.782112 337.252007 130 130 135
1743.532146 186.782112 337.252007 130 130 135
133.320763 -86.831983 129.595333 135 124 86
130.106418 -85.816514 129.224628 135 124 86
142.543923 -95.534483 131.553114 23 20 22
-1535.836015 -196.823600 -74.539973 171 168 168
131.093058 -80.967215 131.643917 152 138 80
99.738840 -127.010634 132.218265 56 60 60
148.414354 -82.485136 133.901558 133 124 73
-1573.056808 -123.173476 -70.362557 66 71 44
43.319070 -94.432082 123.930192 34 28 27
43.554619 -99.207542 124.397040 255 255 255
43.312790 -99.049218 124.454729 255 255 255
-1724.913559 -111.959359 -76.230766 74 81 61
-1724.913559 -111.959359 -76.230766 74 81 61
-1732.778366 -59.520857 -81.262656 105 122 104
-1769.922246 -117.700388 -76.940073 41 48 34
1743.491231 182.996480 305.823501 189 189 189
1743.491231 182.996481 305.823501 189 189 189
127.622362 -76.158287 133.895911 142 131 74
121.788004 -75.773086 133.816828 36 30 14
97.510805 -113.245245 135.193647 89 85 69
-14.441722 -72.543511 121.152551 56 46 35
7.143640 -72.098718 123.418758 71 60 47
70.889253 -119.791630 133.272850 119 110 67
72.583296 -116.158769 133.346008 29 25 23
75.179448 -116.317517 133.585577 28 26 26
74.637949 -116.245508 133.545274 28 26 26
2195.894144 229.710111 337.842664 135 135 122
-17.676722 -71.093757 121.678114 178 170 117
72.522227 -114.891029 134.058852 78 77 58
72.522227 -114.891029 134.058852 78 77 58
-12.833962 -70.355342 122.796249 172 158 100
-12.833962 -70.355342 122.796249 172 158 100
81.599796 -116.479539 135.320168 23 18 19
-37.965326 -68.460540 121.812310 158 157 111
-55.943893 -63.579171 121.693407 73 65 52
-2695.314235 -11.188806 -130.245381 82 110 92
76.945379 -62.756301 133.628862 108 103 80
94.629554 -124.423704 139.998512 253 254 254
89.939862 -123.907273 139.745586 253 254 254
-25.799029 -63.298445 126.556509 178 162 103
72.975806 -122.039155 138.830828 253 254 254
39.645810 -58.177117 132.241213 52 47 44
30.597263 -57.895367 132.262597 52 48 45
77.814045 -109.948891 139.701218 21 19 15
10.677153 -54.021701 131.757990 128 125 99
44.797410 -42.795185 138.064982 154 145 96
16.238262 -41.822732 136.795959 32 28 26
57.690320 -68.536121 145.096989 135 124 87
-181.051137 -16.743848 132.544555 79 68 50
-331.074460 -121.924488 133.141082 36 46 25
-93.944040 -17.327424 137.996327 82 68 48
-1943.107529 22.515681 50.818071 177 179 160
-251.908004 -15.077830 132.578603 14 14 14
-88.261867 -16.426621 140.874120 180 171 115
-53.213730 -17.109840 142.748583 153 139 97
119.209140 -54.631668 150.778601 21 18 19
-6.596429 -17.862064 144.817014 89 87 69
-132.759441 -12.528138 140.575436 54 43 36
28.743190 -25.807215 147.193745 178 175 119
-58.117681 -17.113418 144.229596 164 152 100
-128.919825 -96.626927 145.458327 104 100 62
-208.480733 -15.695261 139.325448 129 116 76
-60.790382 -17.758116 145.313973 33 28 25
65.723816 -35.460258 150.228218 35 31 30
-1506.448022 5.758194 95.189813 101 119 93
96.366782 -36.968559 152.112676 116 109 51
-6.536070 -12.134152 152.600676 128 123 103
-7.782422 -11.629593 152.598966 128 123 103
-1816.125068 36.458835 122.614748 83 103 90
-185.699680 -1.223966 153.093402 81 76 47
-185.699680 -1.223966 153.093401 81 76 47
75.748494 -27.464805 158.215861 255 254 254
75.748494 -27.464805 158.215861 255 254 254
1557.809474 141.127094 176.974826 106 112 108
-129.477291 -0.038285 155.170612 189 173 117
-222.371107 -8.244759 155.662521 24 24 24
-97.342785 -1.306729 156.906506 85 80 59
-207.391258 -5.499801 156.891001 41 36 31
-90.438160 -5.683430 158.003599 36 31 30
54.713930 -30.111519 160.423382 255 255 255
-210.063082 -8.670966 159.123122 163 153 95
-2106.993620 67.639114 150.092716 124 148 131
-1832.882776 52.371189 153.544843 102 141 145
9.314247 -16.232669 161.106299 26 21 15
-199.903931 -8.424356 160.594370 83 79 55
-100.112603 -6.336857 161.080362 36 31 31
-116.988770 -6.059285 161.300286 34 31 27
-1981.019450 79.898797 160.571987 47 69 84
-219.090068 -9.365079 162.305698 41 33 27
-128.110141 -3.060858 162.919861 136 124 77
-67.017131 -6.458081 163.002253 186 169 113
-226.926001 -4.905186 163.729757 127 125 70
-516.506078 -4.391640 167.606925 57 56 40
348.409146 -149.671522 155.762225 47 41 26
6703.403317 18.527654 113.260628 184 174 132
6703.403317 18.527654 113.260631 184 174 132
3178.415200 -22.341454 136.541182 178 175 119
7.646797 -19.107553 165.797862 170 162 110
-492.941731 2.042526 171.125091 54 52 36
6293.799298 -9.093426 92.114889 126 131 47
20.712767 -22.776797 167.568209 53 48 29
-70.152903 -15.142984 169.079090 200 184 132
-580.051735 4.426218 178.199126 47 42 38
356.075982 -157.560300 155.460905 142 128 75
-640.699691 8.513608 185.872337 141 153 106
4995.932046 -294.882747 60.403767 160 154 69
1458.745157 76.130762 137.786493 151 155 162
6171.972576 -271.218927 14.487771 31 32 37
3758.429134 -193.333450 73.970663 142 146 156
-380.777930 -22.508166 183.982379 54 71 83
-14.901002 -25.838250 173.720520 113 108 60
-3.200624 -25.040410 173.545739 196 191 133
-12.445098 -25.316871 173.833210 188 181 118
-156.485892 -20.206854 177.622412 194 187 134
311.498147 -155.994118 155.537917 255 247 247
-383.879485 -20.117499 186.614616 24 23 21
1285.858817 62.344514 136.245751 59 61 60
3026.749066 19.427378 74.175593 162 165 169
-143.066496 -22.398790 180.875068 195 180 123
377.625876 -162.401742 157.842422 55 52 45
2778.769696 15.642466 80.773479 165 166 170
3694.801051 10.988336 47.273243 172 175 178
1953.827279 59.229386 109.382293 173 174 178
-12.809178 -27.883488 177.029440 119 110 67
-543.193833 -18.062968 197.122343 22 19 19
-147.699098 -22.361143 182.100245 83 67 51
4109.982150 -152.178166 28.551649 42 47 41
-398.953288 -17.134136 192.103078 101 107 86
2311.807162 20.347152 91.820540 172 172 171
2054.635949 64.320005 99.796870 143 150 158
3891.121545 -258.689869 29.624944 142 141 88
-14.735396 -29.333797 178.807048 137 122 77
-429.109323 -52.648498 197.579375 255 255 255
-163.001573 -32.906428 185.475084 29 21 22
-418.223173 -13.018822 196.572152 44 41 34
3898.653983 -168.121406 17.668046 129 129 85
-623.696543 -8.916582 206.281745 38 35 34
-596.611020 -13.536579 207.350337 171 163 131
-15.511803 -36.763302 181.005153 92 88 44
421.338419 -166.087086 161.299071 255 255 255
421.338419 -166.087086 161.299071 255 255 255
-3.989994 -49.672757 181.088159 34 27 22
-381.573857 -27.026029 200.089977 40 38 33
359.232845 -157.481021 155.761747 90 89 78
1100.945730 39.367767 132.580710 157 162 151
-14.564814 -36.834426 182.966803 200 192 129
-4.839252 -48.622867 183.988521 37 32 29
14.358065 -62.128757 183.492562 93 85 59
1144.717258 39.342391 125.242866 175 167 132
353.468384 -149.125546 157.277478 246 235 219
0.091887 -55.616451 185.613564 35 27 26
1173.243791 50.745414 118.132375 136 139 111
1190.099879 55.406402 114.755526 39 41 32
1269.364107 55.534626 105.769414 171 174 167
6.537500 -65.861785 189.913241 32 26 25
1260.993339 75.739017 104.522455 39 47 42
1296.013607 80.166393 98.723288 127 146 130
2.190771 -62.603092 194.558844 142 130 76
167.824005 -194.876579 186.466064 218 204 201
370.168759 -143.837753 160.889446 102 90 108
-516.401860 -139.313819 -215.867820 255 244 239
-569.197554 -130.853810 -223.898018 57 56 57
-524.309142 -152.675717 -214.515051 254 242 239
-541.988073 -152.369809 -217.029711 254 242 238
-525.592715 -149.978744 -211.613773 255 246 238
-543.756269 -153.099488 -212.731631 249 241 223
-583.614352 -155.281528 -218.515129 155 149 138
-609.829231 -134.018772 -218.848495 97 96 95
1743.548618 -202.739759 252.570802 107 108 111
-706.729438 -128.644997 -232.536739 120 121 123
-706.729436 -128.644996 -232.536738 120 121 123
-728.006881 -126.742281 -236.439491 120 121 123
-728.006883 -126.742279 -236.439490 120 121 123
1674.246269 -209.961124 234.926469 119 121 122
-543.150789 -170.883892 -200.821410 37 40 39
-474.834883 -194.658920 -186.964541 254 242 236
-797.798994 -120.852922 -238.695287 126 127 123
-711.829574 -204.272054 -232.909674 94 91 86
1479.772534 -235.021061 187.242283 167 166 168
2109.357763 -160.631666 321.269201 128 130 131
-985.470080 -118.583203 -253.783665 107 108 104
-1108.232150 -96.560317 -269.842773 109 116 110
-5802.701112 -735.582932 -1261.519903 39 44 49
-7094.964402 -840.077121 -1512.915737 147 149 154
-746.123822 -176.943272 -209.187363 53 55 30
-907.574442 -309.670730 -258.529122 251 246 236
-955.034998 -272.641712 -260.296262 122 131 131
-1882.399695 -308.124182 -429.009089 156 160 159
-1882.086397 -308.122277 -428.951983 156 160 159
-1881.600157 -308.119281 -428.863488 156 160 159
-995.453591 -278.598269 -263.880395 38 40 40
-1607.442772 -355.055528 -387.937560 149 154 164
-2957.873357 -499.434539 -658.478985 60 68 82
-1553.594708 -358.474424 -376.520697 53 61 73
-1307.784104 -307.015786 -321.032336 43 47 55
-1548.217636 -361.179130 -370.506016 46 53 64
-1276.218569 -251.783734 -304.452903 48 59 71
-1420.915291 -292.058145 -326.779662 22 25 30
-2175.828349 -338.962617 -464.295836 147 152 153
-1626.723288 -171.116706 -320.048687 112 119 121
-1641.007406 -262.793090 -279.991819 166 164 165
958.101413 -269.462953 85.057987 144 145 135
-2178.816983 -288.973324 -339.648131 169 167 162
118.509397 -118.378999 44.196242 255 255 255
-36.130420 -113.955248 182.535153 139 142 92
1577.601850 -217.651042 186.026517 113 109 94
2648.753460 -313.718488 384.997855 117 121 122
-716.471352 -62.428475 -64.382885 60 58 51
-2890.601737 -257.347039 -370.827529 151 146 79
-12.795683 114.215267 83.572471 65 56 45
-4973.207678 -284.928959 -621.997939 90 89 48
-34.839762 181.275445 99.534881 254 254 254
1424.711208 -244.018321 157.515393 106 105 94
-3.591322 109.860850 90.394072 126 118 71
-14.078215 192.497354 111.019940 255 254 255
-22.543398 -53.623736 53.966485 42 38 34
-22.543406 -53.623734 53.966484 42 38 34
-13.610604 -60.848746 57.020736 255 254 254
1.159034 133.830408 103.948165 71 62 47
103.092861 -155.454044 61.920562 255 255 255
-6.234432 -69.049582 62.188945 37 31 28
109.362814 -156.257472 62.164285 255 255 255
-71.198669 38.486421 73.398611 188 173 111
-44.849276 59.396000 85.749061 74 62 43
-103.014068 21.320979 69.337531 56 45 35
-48.072465 49.073388 83.724267 126 115 78
-21.527674 83.097711 96.166376 67 58 37
-93.708262 20.982528 74.124326 172 161 102
-1.588660 -68.552667 71.447618 30 25 24
-12.649769 117.788460 109.856803 156 147 96
4.518051 166.212653 123.293489 16 14 13
-3.156270 122.080396 113.321582 131 130 93
-17.163061 142.848699 119.242483 27 22 22
-44.768292 32.229244 87.887003 48 44 37
-14.478751 110.209101 109.901840 26 22 22
-138.007885 23.631182 74.083399 154 152 104
7107.342463 -533.358827 663.181389 136 126 52
99.575427 185.326258 147.559072 255 255 255
49.586401 -142.109530 80.722903 108 104 68
-148.384963 79.297095 333.062903 110 104 60
88.039551 -90.110310 100.208216 32 29 26
-6.029406 114.733844 125.847879 32 29 27
-8.717959 102.947324 122.613345 38 33 30
-11.606549 108.342240 124.134292 80 77 65
-47.696847 88.650356 115.973677 54 47 45
50.632950 -147.113181 85.979096 93 92 58
-15.373121 102.633076 130.376901 59 56 47
-1835.556894 33.333118 -39.432001 75 109 99
-3991.037203 159.510711 -174.852741 133 165 159
710.380829 -254.688674 71.222649 82 110 96
-3.616880 160.897623 155.130017 44 35 26
67.799572 -106.510574 117.011033 20 17 16
-21.782273 122.996719 147.782655 96 94 78
-20.127269 133.766829 153.153715 31 27 24
-213.893662 76.603053 122.877096 152 148 94
44.115506 183.541439 172.954535 182 180 137
-38.027359 112.225923 147.653834 40 36 31
-282.216615 70.249587 119.532862 20 31 42
-369.555312 110.263918 125.324360 36 34 33
111.690193 195.954254 195.912398 59 49 42
111.690188 195.954257 195.912399 59 49 42
-58.351426 112.521188 154.906369 22 18 17
-4943.516121 273.558667 -116.834610 115 127 98
-52.043820 196.432106 180.675366 187 177 122
-147.761658 116.716178 156.306382 173 162 104
-54.714494 188.740901 180.656349 188 181 111
-329.574058 105.114619 371.790698 103 88 58
-82.737455 117.288082 166.860144 182 170 115
66.668838 48.144213 168.170147 35 30 28
79.051593 226.037082 213.467011 255 255 255
-2477.919438 -131.812560 25.427744 118 116 45
-196.444582 113.226094 159.255769 57 48 33
44.344459 177.582541 193.466445 183 182 118
-184.674382 104.561926 160.101304 58 49 31
-323.628636 74.755714 145.049254 184 169 116
-188.740218 96.302081 157.981241 46 39 30
50.903193 177.378927 196.075201 44 38 38
-249.425217 83.381329 152.108007 54 47 34
-101.336775 117.301310 170.685667 76 67 46
-274.511676 63.948317 148.834937 59 45 30
-127.908851 106.222315 167.749821 112 106 67
-70.351146 123.919392 175.741421 46 39 32
-88.672187 114.331309 174.821261 162 146 91
1585.544379 -213.510555 156.728733 121 113 78
-265.477222 52.542806 150.239128 149 140 85
-175.261244 77.473126 162.757352 141 134 74
22.288712 158.066904 193.860691 168 172 112
-61.120974 107.568783 178.114507 46 42 35
93.058237 172.885940 211.527037 108 105 87
43.410720 169.826276 205.709803 86 83 74
53.448708 172.076609 208.443369 155 153 114
59.569914 170.518920 211.140103 40 34 29
98.277165 169.322047 220.340821 153 153 109
-276.138083 71.190418 176.989905 165 167 110
100.773967 164.622912 225.782545 82 75 56
110.727233 163.842614 228.843956 149 148 89
110.727237 163.842612 228.843955 149 148 89
-284.389983 52.388521 183.690781 15 13 13
-31.850618 166.032045 219.300914 144 142 103
-209.477145 77.775997 198.656455 36 30 30
126.260832 178.913447 242.447604 40 36 30
37.484877 160.361508 230.587438 118 113 83
-205.726940 69.378219 200.526843 44 35 28
-148.928987 81.333323 205.795015 108 103 76
-278.181280 54.992299 196.089468 79 76 69
-97.877365 88.614816 209.309627 128 126 83
-555.449874 17.284004 181.583469 141 142 95
2682.201114 -382.059520 225.348603 86 104 88
-16.666413 108.933621 218.862729 49 41 27
-159.699127 71.781163 205.783268 147 139 84
-73.958458 89.536900 214.318690 116 115 78
1659.765260 -301.305406 123.336197 164 157 73
30.019917 134.314288 232.649491 21 18 16
56.416661 167.969673 240.876300 110 99 59
139.600894 176.053598 248.522308 117 116 84
-0.779285 124.913752 227.945654 28 24 20
2887.705283 -322.238861 130.718086 39 43 36
200.872937 157.719594 251.514733 57 53 39
46.987677 142.406888 238.483903 71 62 44
1576.756845 -288.909494 123.319383 133 144 157
1576.756847 -288.909496 123.319382 133 144 157
34.519339 131.756545 235.489545 151 132 81
49.998592 141.602820 239.951227 78 63 44
1431.401645 -288.020393 121.448719 30 36 44
-541.109507 27.664363 205.828594 52 50 32
1600.888571 -281.431011 123.433638 105 108 119
1573.554956 -283.628150 122.162243 29 40 47
1587.054274 -281.522791 122.052530 24 27 32
-76.594330 164.136908 255.671502 133 116 54
102.945922 135.061657 249.868255 29 23 22
102.945923 135.061656 249.868257 29 23 22
1641.151250 -273.057914 123.560051 121 131 139
3107.136636 -840.195291 8.321203 58 55 38
-650.583149 19.139643 214.028964 48 40 33
1465.013597 -271.603063 123.503880 157 163 169
1475.707256 -271.040829 123.648702 157 163 169
93.422261 126.256073 250.894764 212 202 126
1444.617925 -274.268113 122.791189 99 107 128
-572.548511 35.089905 220.977726 144 151 99
116.313158 132.180987 255.436974 43 38 30
-796.403054 1.670210 219.758337 87 82 56
-725.320914 14.825273 222.174861 151 152 90
1600.652639 -274.250899 120.967378 33 39 44
1351.730783 -271.280204 123.071151 162 165 171
-813.070860 11.694936 224.430089 143 148 97
106.118325 118.517739 256.021275 168 161 94
1475.960750 -270.061550 122.347258 160 164 168
-68.017229 64.802769 239.665545 49 42 36
-68.017231 64.802767 239.665556 49 42 36
128.334876 134.506103 261.372917 196 185 133
-872.334790 3.341720 225.126909 139 142 92
-838.261644 2.284233 224.873653 139 144 106
1531.208575 -271.910065 120.982840 164 167 169
180.507416 167.891284 273.422629 254 254 254
180.507164 167.891364 273.422814 254 254 254
1386.581154 -264.897865 124.253097 174 174 175
1588.126890 -281.290065 117.902201 54 62 69
1588.126890 -281.290062 117.902202 54 62 69
1491.449164 -302.941479 114.169851 123 133 123
1526.566160 -278.205301 119.107156 129 126 113
110.554741 110.975225 259.710509 184 176 110
82.223451 100.144597 260.234429 38 34 27
82.223456 100.144594 260.234436 38 34 27
1565.607383 -281.034164 116.306360 54 58 43
144.000998 119.291494 270.041597 253 253 249
199.349388 174.302356 283.549107 254 255 254
-81.453072 37.471636 245.489999 69 64 59
-122.563426 -593.999319 45.485875 169 164 137
-315.861919 -9.406007 239.182492 18 16 13
-2058.698841 340.831637 384.455035 186 179 122
1386.654268 -291.565301 115.487043 151 144 106
1979.598615 -274.457675 106.714386 48 53 54
9.824237 66.685632 257.881138 166 154 98
-326.841502 -12.919369 240.568233 143 146 106
11.485821 63.940309 258.018700 59 49 41
1550.811740 -244.161061 123.656006 192 189 190
-6.070720 53.115963 257.879651 60 50 35
-321.595354 -10.253671 244.818640 104 108 92
107.474435 126.388683 282.813359 255 255 255
1733.831774 -309.640359 102.576627 97 102 57
-427.371583 -22.873339 248.352906 196 175 113
99.716144 72.189481 269.406933 159 149 81
112.011817 83.943118 271.565478 114 110 66
-554.691033 -35.288567 250.406811 142 139 113
-646.368065 -44.330837 251.735479 20 18 20
-46.657769 45.185277 263.104383 99 81 56
1505.709723 -302.222710 108.329730 33 39 40
-944.808393 -293.373939 255.581438 102 105 57
-459.590619 -34.824272 250.981094 40 39 32
89.434291 55.918799 267.406576 23 18 16
-194.860139 -599.912490 61.512165 117 124 112
-1253.206975 -357.663863 220.425387 156 155 77
-18.522268 28.584928 264.548278 192 175 122
-976.744814 -294.215231 257.357469 102 105 57
-61.810237 18.357908 264.431034 141 127 94
-70.108099 16.208256 264.153424 145 132 96
-482.206901 -31.502798 263.262736 25 23 18
-371.518243 -9.789223 266.476337 184 170 106
138.904264 85.254650 284.220190 173 162 104
-465.593604 -31.926930 266.129548 195 182 129
-305.385244 -624.822732 70.683563 158 165 157
110.844333 60.036674 280.713739 121 112 60
-321.845214 -19.800106 268.580212 117 105 75
139.366393 77.792303 287.061795 170 159 102
-466.600346 -76.463722 264.169528 254 254 253
116.313772 27.238584 278.110809 132 120 72
-445.272473 -63.300977 266.426904 62 58 49
-1328.656100 -269.925623 263.708407 103 109 75
-54.171456 4.038222 273.041881 255 255 255
-340.832506 -646.104960 73.704432 120 130 120
131.888523 6.514903 276.077123 92 86 62
131.888525 6.514903 276.077122 92 86 62
127.514160 63.357011 286.632141 156 144 85
-242.861917 81.413692 316.067235 255 255 255
-242.867309 81.415073 316.067973 255 255 255
114.258591 57.880678 292.157583 143 127 78
-824.744415 -295.836340 308.806093 110 119 106
-257.128849 -500.774135 178.366418 173 169 157
-461.733577 -678.968688 84.611420 64 79 73
672.154099 -134.629885 160.393749 34 29 30
-59.469704 -373.654960 207.823140 170 172 119
127.489884 4.158243 288.879963 110 104 60
137.369148 48.445697 297.942179 174 164 101
-25.209655 -380.670197 212.898171 156 156 132
145.094470 -27.086885 290.746378 255 255 255
145.094468 -27.086883 290.746373 255 255 255
-18.582066 -401.942407 211.490199 125 123 82
142.050253 -16.082694 293.391908 103 88 58
-588.982549 -753.869681 166.776555 150 150 153
-27.766987 -391.567266 218.358587 86 90 55
-7.620034 -367.529303 224.203662 168 163 133
-2.221112 -364.436054 224.731352 28 28 20
-35.435284 181.035345 99.422192 254 254 254
-198.014438 -292.389397 250.359255 110 119 106
-100.834824 -515.944564 195.898830 122 123 109
136.017438 10.452551 307.096052 121 108 71
130.473360 3.202215 305.855517 77 69 60
35.334659 -348.011703 233.487617 60 59 35
-82.295042 -309.103838 243.684048 56 69 77
-336.148288 -645.169934 187.524706 155 156 156
143.596970 -56.109118 296.905494 103 91 66
143.596962 -56.109113 296.905483 103 91 66
43.196487 -346.731743 237.502772 82 81 62
34.308835 -354.914436 238.206660 255 255 255
-4.150859 -374.882075 236.472861 253 254 254
2587.954448 -539.749896 187.127616 37 31 28
140.120445 -53.170648 302.776972 253 254 252
140.120442 -53.170648 302.776973 253 254 252
-0.605666 -382.915565 235.981567 255 253 252
39.051417 -345.111972 244.143435 64 67 60
39.276539 -345.139918 244.105979 64 67 60
-391.115878 -685.934373 194.357187 140 141 136
151.313164 -13.810112 314.268823 110 98 50
19.384694 -323.532816 251.380313 82 110 115
149.661584 3.760606 319.252083 255 255 255
145.495989 -27.909930 316.815038 187 170 87
139.277174 -44.459892 314.606009 147 130 75
155.992694 -60.656053 314.093897 102 87 65
155.778040 -71.511810 319.052946 132 116 84
284.252174 -535.571680 243.595899 24 21 21
-655.702963 -724.671123 291.788163 253 247 244
727.950785 -113.511415 177.999918 168 161 94
28.428103 -606.211113 278.538282 24 21 21
2784.287656 -110.585269 3.970270 255 254 252
539.223329 -390.543829 -86.808369 113 128 142
-3247.157586 81.542568 -522.331772 55 53 55
-3243.899891 70.298236 -499.771778 98 98 101
-3187.469976 63.738825 -485.258752 115 116 117
-3388.214016 20.229555 -523.309986 40 40 33
-3548.940868 3.812339 -519.981532 68 61 44
-3620.731956 -7.403815 -516.869924 79 65 24
-3450.191564 -114.743802 -514.555750 67 65 62
-3408.606597 -65.736706 -495.110860 172 169 166
-2506.689107 -715.277107 -517.039614 128 131 132
-2531.105664 -678.074671 -510.653203 126 130 134
-2932.336299 -414.149172 -493.204291 35 39 52
-2383.111347 -331.156189 -388.668122 52 53 55
-3363.659741 -238.180831 -495.353664 58 63 67
-1973.089177 -301.521719 -320.869680 52 53 55
-3109.546920 -336.266159 -481.378803 140 147 156
-3064.009286 -341.604524 -469.106615 43 50 62
-3170.870436 -323.112219 -478.189347 89 100 114
-2524.711831 -697.594364 -478.018455 111 117 122
-3420.182106 -147.986578 -464.198677 114 125 132
-3463.100406 -44.642438 -438.511600 139 141 100
-3400.149419 -66.236123 -423.990354 113 115 115
-3400.149419 -66.236123 -423.990355 113 115 115
-3421.866755 -85.107683 -429.034271 141 141 142
-3401.415889 -59.559010 -409.299087 48 49 32
-4250.344235 248.654254 -386.833446 188 179 149
-3715.877594 -147.656596 -425.330836 97 98 101
-3512.477856 -70.115696 -382.497282 62 67 45
